ncols         477
nrows         32
xllcorner     499992.539756
yllcorner     3352337.61427
cellsize      2.0655008894275
NODATA_value  -9999
-9999 -9999 -9999 -9999 -9999 -9999 -9999 -9999 -9999 -9999 -9999 -9999 -9999 -9999 -9999 -9999 -9999 -9999 -9999 -9999 -9999 -9999 -9999 -9999 -9999 -9999 -9999 -9999 -9999 5.13187 5.11744 5.10301 5.088079 5.073234 5.152576 5.243273 5.269 5.269 5.269 5.269 5.269 5.269 5.269 5.269 5.269 5.269 5.269 5.269 5.269 5.269 5.269 5.269 5.269 10.269 10.269 10.269 10.269 10.269 10.269 10.269 10.269 10.269 10.269 10.269 10.269 10.269 10.269 10.269 10.269 10.269 10.269 10.269 10.269 10.269 10.269 10.269 10.269 10.269 10.369 10.91264 6.237 6.237 6.237 6.237 6.237 6.237 6.237 6.237 6.237 6.237 6.237 6.237 6.237 6.237 6.237 6.237 6.237 6.237 6.237 6.237 6.237 6.237 6.237 6.237 6.237 6.237 6.237 6.237 6.237 6.237 6.237 6.237 6.237 6.237 6.237 6.237 6.237 6.237 6.237 6.237 6.237 6.237 6.237 6.237 6.237 6.237 6.237 6.237 6.237 6.237 6.237 6.237 6.237 6.237 6.237 6.237 6.237 6.237 6.237 6.237 6.237 6.237 6.237 6.237 6.237 6.015372 5.369 5.269 5.269 5.269 5.269 5.269 5.269 5.269 5.269 5.218102 5.080395 4.84574 4.77598 4.747564 4.743 4.786016 4.915028 4.92561 4.911669 4.691663 4.619916 4.147689 3.369574 3.181 3.081 3.081 3.081 3.081 3.081 3.081 3.181 3.788526 4.157857 4.661197 4.88 4.88 4.88 4.88 4.88 4.88 4.88 4.88 4.88 4.88 4.88 4.88 4.88 4.88 4.88 4.88 4.88 4.88 4.88 4.88 4.88 4.88 4.88 4.88 4.88 4.88 4.88 4.88 4.88 4.88 4.88 4.88 4.88 4.88 4.88 4.88 4.88 4.88 4.88 4.88 4.88 4.88 4.88 4.88 9.88 9.88 9.88 9.88 9.88 9.88 9.88 9.88 9.88 9.88 9.88 4.88 4.88 4.88 4.88 4.88 4.88 4.88 4.88 4.88 4.88 4.88 4.88 4.88 4.88 4.88 4.88 4.88 4.88 4.88 4.88 4.88 4.88 4.88 4.88 4.88 4.88 4.88 4.88 4.88 4.88 4.88 4.88 4.88 4.88 4.88 4.88 9.88 9.88 9.88 9.88 9.88 9.88 9.88 9.88 9.88 9.88 9.88 9.88 9.88 9.88 9.88 9.88 9.88 9.88 9.88 9.88 9.88 9.88 9.88 9.88 9.88 9.88 9.88 9.88 9.88 9.88 9.88 9.88 9.88 9.88 9.88 4.88 4.88 4.88 4.88 4.88 4.88 4.88 4.88 4.88 4.88 4.88 4.88 4.88 4.88 4.88 4.88 9.88 9.88 9.88 9.88 9.88 9.88 9.88 9.88 9.88 9.88 9.88 9.88 9.88 9.88 9.88 9.88 9.88 9.88 9.88 9.88 9.88 9.88 9.88 9.88 9.88 9.88 9.88 9.88 9.88 4.88 4.88 4.88 9.88 9.88 9.88 9.88 9.88 9.88 9.88 9.88 9.88 9.88 9.88 9.88 9.88 9.88 9.88 9.88 9.88 9.88 9.88 9.88 9.88 9.88 9.88 9.88 9.88 9.88 9.88 9.88 9.88 9.88 9.88 9.88 9.88 4.88 4.88 4.88 4.88 4.88 4.88 4.88 4.88 4.88 4.88 4.88 4.88 4.88 4.88 4.88 4.88 4.88 4.88 4.88 4.88 4.88 4.88 4.88 4.88 4.88 4.88 4.88 9.88 9.88 9.88 9.88 9.88 9.88 9.88 9.88 9.88 9.88 9.88 9.88 9.88 9.88 9.88 9.88 9.88 9.88 9.88 9.88 9.88 9.88 9.88 9.88 9.88 9.88 9.88 9.88 9.88 9.88 9.88 9.88 9.88 9.88 9.88 9.88 9.88 9.88 9.88 9.88 4.88 4.88 4.88 4.673197 3.749496 3.144388 3.081 3.081 3.187622 3.461314 3.971788 4.40781 4.931139 5.290217 -9999 -9999 -9999 -9999 -9999 -9999 -9999 -9999 -9999
-9999 -9999 -9999 -9999 -9999 -9999 -9999 -9999 -9999 -9999 -9999 -9999 -9999 -9999 -9999 -9999 -9999 -9999 -9999 -9999 -9999 -9999 -9999 -9999 -9999 -9999 -9999 -9999 -9999 5.111948 5.097486 5.083055 5.068625 5.05341 5.038764 5.300924 5.269 5.269 5.269 5.269 5.269 5.269 5.269 5.269 5.269 5.269 5.269 5.269 5.269 5.269 5.269 5.269 5.269 10.269 10.269 10.269 10.269 10.269 10.269 10.269 10.269 10.269 10.269 10.269 10.269 10.269 10.269 10.269 10.269 10.269 10.269 10.269 10.269 10.269 10.269 10.269 10.269 10.269 10.269 10.269 6.237 6.237 6.237 6.237 6.237 6.237 6.237 6.237 6.237 6.237 6.237 6.237 6.237 6.237 6.237 6.237 6.237 6.237 6.237 6.237 6.237 6.237 6.237 6.237 6.237 6.237 6.237 6.237 6.237 6.237 6.237 6.237 6.237 6.237 6.237 6.237 6.237 6.237 6.237 6.237 6.237 6.237 6.237 6.237 6.237 6.237 6.237 6.237 6.237 6.237 6.237 6.237 6.237 6.237 6.237 6.237 6.237 6.237 6.237 6.237 6.237 6.237 6.237 6.237 6.237 6.015344 5.369 5.269 5.269 5.269 5.269 5.269 5.269 5.269 5.269 5.269 5.267967 5.085433 4.799702 4.743 4.743 4.743 4.863819 4.918911 4.925 4.894635 4.65571 4.370748 4.116801 3.399208 3.081 3.081 3.081 3.081 3.081 3.081 3.081 3.366586 3.739304 4.331986 4.808043 4.88 4.88 4.88 4.88 4.88 4.88 4.88 4.88 4.88 4.88 4.88 4.88 4.88 4.88 4.88 4.88 4.88 4.88 4.88 4.88 4.88 4.88 4.88 4.88 4.88 4.88 4.88 4.88 4.88 4.88 4.88 4.88 4.88 4.88 4.88 4.88 4.88 4.88 4.88 4.88 9.88 9.88 9.88 9.88 9.88 9.88 9.88 9.88 9.88 9.88 9.88 9.88 9.88 9.88 4.88 4.88 4.88 4.88 4.88 4.88 4.88 4.88 4.88 4.88 4.88 4.88 4.88 4.88 4.88 4.88 4.88 4.88 4.88 4.88 4.88 4.88 4.88 4.88 4.88 4.88 4.88 4.88 4.88 4.88 4.88 4.88 4.88 4.88 4.88 4.88 9.88 9.88 9.88 9.88 9.88 9.88 9.88 9.88 9.88 9.88 9.88 9.88 9.88 9.88 9.88 9.88 9.88 9.88 9.88 9.88 9.88 9.88 9.88 9.88 9.88 9.88 9.88 9.88 9.88 9.88 9.88 9.88 9.88 9.88 9.88 4.88 4.88 4.88 4.88 4.88 4.88 4.88 4.88 4.88 4.88 4.88 4.88 4.88 4.88 4.88 4.88 9.88 9.88 9.88 9.88 9.88 9.88 9.88 9.88 9.88 9.88 9.88 9.88 9.88 9.88 9.88 9.88 9.88 9.88 9.88 9.88 9.88 9.88 9.88 9.88 9.88 9.88 9.88 9.88 9.88 4.88 4.88 4.88 9.88 9.88 9.88 9.88 9.88 9.88 9.88 9.88 9.88 9.88 9.88 9.88 9.88 9.88 9.88 9.88 9.88 9.88 9.88 9.88 9.88 9.88 9.88 9.88 9.88 9.88 9.88 9.88 9.88 9.88 9.88 9.88 9.88 9.88 4.88 4.88 4.88 4.88 4.88 4.88 4.88 4.88 4.88 4.88 4.88 4.88 4.88 4.88 4.88 4.88 4.88 4.88 4.88 4.88 4.88 4.88 4.88 4.88 4.88 4.88 9.88 9.88 9.88 9.88 9.88 9.88 9.88 9.88 9.88 9.88 9.88 9.88 9.88 9.88 9.88 9.88 9.88 9.88 9.88 9.88 9.88 9.88 9.88 9.88 9.88 9.88 9.88 9.88 9.88 9.88 9.88 9.88 9.88 9.88 9.88 9.88 9.88 9.88 9.88 9.88 4.88 4.88 4.88 4.694355 4.326619 3.761853 3.181 3.081 3.136338 3.486897 3.7102 4.216147 4.792157 5.218251 -9999 -9999 -9999 -9999 -9999 -9999 -9999 -9999 -9999
-9999 -9999 -9999 -9999 -9999 -9999 -9999 -9999 -9999 -9999 -9999 -9999 -9999 -9999 -9999 -9999 -9999 -9999 -9999 -9999 -9999 -9999 -9999 -9999 -9999 -9999 -9999 -9999 -9999 -9999 5.077593 5.063101 5.04867 5.033934 5.018964 5.075691 5.313616 5.269 5.269 5.269 5.269 5.269 5.269 5.269 5.269 5.269 5.269 5.269 5.269 5.269 5.269 5.269 5.269 5.269 10.269 10.269 10.269 10.269 10.269 10.269 10.269 10.269 10.269 10.269 10.269 10.269 10.269 10.269 10.269 10.269 10.269 10.269 10.269 10.269 10.269 10.269 10.269 10.269 10.269 10.269 6.237 6.237 6.237 6.237 6.237 6.237 6.237 6.237 6.237 6.237 6.237 6.237 6.237 6.237 6.237 6.237 6.237 6.237 6.237 6.237 6.237 6.237 6.237 6.237 6.237 6.237 6.237 6.237 6.237 6.237 6.237 6.237 6.237 6.237 6.237 6.237 6.237 6.237 6.237 6.237 6.237 6.237 6.237 6.237 6.237 6.237 6.237 6.237 6.237 6.237 6.237 6.237 6.237 6.237 6.237 6.237 6.237 6.237 6.237 6.237 6.237 6.237 6.237 6.237 6.237 6.015315 5.369 5.269 5.269 5.269 5.269 5.269 5.269 5.269 5.269 5.269 5.269 5.29347 4.882082 4.748382 4.743 4.72881 4.768702 4.862564 4.921546 4.925 4.883779 4.697361 4.343988 3.817169 3.181 3.081 3.081 3.081 3.081 3.081 3.081 3.181 3.594074 3.987898 4.315629 4.687839 4.88 4.88 4.88 4.88 4.88 4.88 4.88 4.88 4.88 4.88 4.88 4.88 4.88 4.88 4.88 4.88 4.88 4.88 4.88 4.88 4.88 4.88 4.88 4.88 4.88 4.88 4.88 4.88 4.88 4.88 4.88 4.88 4.88 4.88 4.88 4.88 4.88 9.88 9.88 9.88 9.88 9.88 9.88 9.88 9.88 9.88 9.88 9.88 9.88 9.88 9.88 9.88 9.88 9.88 4.88 4.88 4.88 4.88 4.88 4.88 4.88 4.88 4.88 4.88 4.88 4.88 4.88 4.88 4.88 4.88 4.88 4.88 4.88 4.88 4.88 4.88 4.88 4.88 4.88 4.88 4.88 4.88 4.88 4.88 4.88 4.88 4.88 4.88 4.88 4.88 4.88 9.88 9.88 9.88 9.88 9.88 9.88 9.88 9.88 9.88 9.88 9.88 9.88 9.88 9.88 9.88 9.88 9.88 9.88 9.88 9.88 9.88 9.88 9.88 9.88 9.88 9.88 9.88 9.88 9.88 9.88 9.88 9.88 9.88 4.88 4.88 4.88 4.88 4.88 4.88 4.88 4.88 4.88 4.88 4.88 4.88 4.88 4.88 4.88 4.88 4.88 4.88 9.88 9.88 9.88 9.88 9.88 9.88 9.88 9.88 9.88 9.88 9.88 9.88 9.88 9.88 9.88 9.88 9.88 9.88 9.88 9.88 9.88 9.88 9.88 9.88 9.88 9.88 9.88 9.88 4.88 4.88 4.88 9.88 9.88 9.88 9.88 9.88 9.88 9.88 9.88 9.88 9.88 9.88 9.88 9.88 9.88 9.88 9.88 9.88 9.88 9.88 9.88 9.88 9.88 9.88 9.88 9.88 9.88 9.88 9.88 9.88 9.88 9.88 9.88 9.88 4.88 4.88 4.88 4.88 4.88 4.88 4.88 4.88 4.88 4.88 4.88 4.88 4.88 4.88 4.88 4.88 4.88 4.88 4.88 4.88 4.88 4.88 4.88 4.88 4.88 4.88 9.88 9.88 9.88 9.88 9.88 9.88 9.88 9.88 9.88 9.88 9.88 9.88 9.88 9.88 9.88 9.88 9.88 9.88 9.88 9.88 9.88 9.88 9.88 9.88 9.88 9.88 9.88 9.88 9.88 9.88 9.88 9.88 9.88 9.88 9.88 9.88 9.88 9.88 9.88 9.88 4.88 4.88 4.88 4.88 4.683062 4.185411 3.362798 3.081 3.081 3.116246 3.704103 4.053102 4.619041 4.958508 -9999 -9999 -9999 -9999 -9999 -9999 -9999 -9999 -9999
-9999 -9999 -9999 -9999 -9999 -9999 -9999 -9999 -9999 -9999 -9999 -9999 -9999 -9999 -9999 -9999 -9999 -9999 -9999 -9999 -9999 -9999 -9999 -9999 -9999 -9999 -9999 -9999 -9999 -9999 -9999 5.043246 5.028716 5.014286 4.999645 4.984634 5.024918 5.187531 5.269 5.269 5.269 5.269 5.269 5.269 5.269 5.269 5.269 5.269 5.269 5.269 5.269 5.269 5.269 5.269 10.269 10.269 10.269 10.269 10.269 10.269 10.269 10.269 10.269 10.269 10.269 10.269 10.269 10.269 10.269 10.269 10.269 10.269 10.269 10.269 10.269 10.269 10.269 10.269 10.269 10.369 6.237 6.237 6.237 6.237 6.237 6.237 6.237 6.237 6.237 6.237 6.237 6.237 6.237 6.237 6.237 6.237 6.237 6.237 6.237 6.237 6.237 6.237 6.237 6.237 6.237 6.237 6.237 6.237 6.237 6.237 6.237 6.237 6.237 6.237 6.237 6.237 6.237 6.237 6.237 6.237 6.237 6.237 6.237 6.237 6.237 6.237 6.237 6.237 6.237 6.237 6.237 6.237 6.237 6.237 6.237 6.237 6.237 6.237 6.237 6.237 6.237 6.237 6.237 6.237 6.237 6.015286 5.269 5.269 5.269 5.269 5.269 5.269 5.269 5.269 5.269 5.269 5.269 5.269 5.27015 4.882333 4.730066 4.707722 4.680397 4.743297 4.857442 4.925 4.907921 4.818924 4.68273 4.157451 3.592968 3.181 3.081 3.081 3.081 3.081 3.081 3.081 3.109362 3.69233 4.133538 4.683572 4.88 4.88 4.88 4.88 4.88 4.88 4.88 4.88 4.88 4.88 4.88 4.88 4.88 4.88 4.88 4.88 4.88 4.88 4.88 4.88 4.88 4.88 4.88 4.88 4.88 4.88 4.88 4.88 4.88 4.88 4.88 4.88 4.88 4.88 9.88 9.88 9.88 9.88 9.88 9.88 9.88 9.88 9.88 9.88 9.88 9.88 9.88 9.88 9.88 9.88 9.88 9.88 9.88 9.88 9.88 4.88 4.88 4.88 4.88 4.88 4.88 4.88 4.88 4.88 4.88 4.88 4.88 4.88 4.88 4.88 4.88 4.88 4.88 4.88 4.88 4.88 4.88 4.88 4.88 4.88 4.88 4.88 4.88 4.88 4.88 4.88 4.88 4.88 4.88 4.88 4.88 9.88 9.88 9.88 9.88 9.88 9.88 9.88 9.88 9.88 9.88 9.88 9.88 9.88 9.88 9.88 9.88 9.88 9.88 9.88 9.88 9.88 9.88 9.88 9.88 9.88 9.88 4.88 4.88 4.88 9.88 9.88 9.88 9.88 9.88 4.88 4.88 4.88 4.88 4.88 4.88 4.88 4.88 4.88 4.88 4.88 4.88 4.88 4.88 4.88 4.88 4.88 9.88 9.88 9.88 9.88 9.88 9.88 9.88 9.88 9.88 9.88 9.88 9.88 9.88 9.88 9.88 9.88 9.88 9.88 9.88 9.88 9.88 9.88 9.88 9.88 9.88 9.88 9.88 9.88 4.88 4.88 4.88 9.88 9.88 9.88 9.88 9.88 9.88 9.88 9.88 9.88 9.88 9.88 9.88 9.88 9.88 9.88 9.88 9.88 9.88 9.88 9.88 9.88 9.88 9.88 9.88 9.88 9.88 9.88 9.88 9.88 9.88 9.88 9.88 9.88 9.88 4.88 4.88 4.88 4.88 4.88 4.88 4.88 4.88 4.88 4.88 4.88 4.88 4.88 4.88 4.88 4.88 4.88 4.88 4.88 4.88 4.88 4.88 4.88 4.88 4.88 4.88 9.88 9.88 9.88 9.88 9.88 9.88 9.88 9.88 9.88 9.88 9.88 9.88 9.88 9.88 9.88 9.88 9.88 9.88 9.88 9.88 9.88 9.88 9.88 9.88 9.88 9.88 9.88 9.88 9.88 9.88 9.88 9.88 9.88 9.88 9.88 9.88 9.88 9.88 9.88 9.88 4.88 4.88 4.88 4.88 4.371728 3.49947 3.081 3.081 3.195608 3.702009 3.779146 4.420316 4.755585 5.051396 -9999 -9999 -9999 -9999 -9999 -9999 -9999 -9999
-9999 -9999 -9999 -9999 -9999 -9999 -9999 -9999 -9999 -9999 -9999 -9999 -9999 -9999 -9999 -9999 -9999 -9999 -9999 -9999 -9999 -9999 -9999 -9999 -9999 -9999 -9999 -9999 -9999 -9999 -9999 5.023331 5.008761 4.994331 4.979901 4.965348 5.050312 5.150197 5.269 5.269 5.269 5.269 5.269 5.269 5.269 5.269 5.269 5.269 5.269 5.269 5.269 5.269 5.269 5.269 5.269 10.269 10.269 10.269 10.269 10.269 10.269 10.269 10.269 10.269 10.269 10.269 10.269 10.269 10.269 10.269 10.269 10.269 10.269 10.269 10.269 10.269 10.269 10.269 10.269 10.269 6.215952 6.237 6.237 6.237 6.237 6.237 6.237 6.237 6.237 6.237 6.237 6.237 6.237 6.237 6.237 6.237 6.237 6.237 6.237 6.237 6.237 6.237 6.237 6.237 6.237 6.237 6.237 6.237 6.237 6.237 6.237 6.237 6.237 6.237 6.237 6.237 6.237 6.237 6.237 6.237 6.237 6.237 6.237 6.237 6.237 6.237 6.237 6.237 6.237 6.237 6.237 6.237 6.237 6.237 6.237 6.237 6.237 6.237 6.237 6.237 6.237 6.237 6.237 6.237 6.237 6.015258 5.269 5.269 5.269 5.269 5.269 5.269 5.269 5.269 5.269 5.269 5.269 5.269 5.269 5.036794 4.683953 4.682775 4.630476 4.638864 4.736804 4.860705 4.868043 4.850564 4.689036 4.680904 4.113797 3.181 3.081 3.081 3.081 3.081 3.081 3.081 3.081 3.174198 3.811235 4.155479 4.699764 4.88 4.88 4.88 4.88 4.88 4.88 4.88 4.88 4.88 4.88 4.88 4.88 4.88 4.88 4.88 4.88 4.88 4.88 4.88 4.88 4.88 4.88 4.88 4.88 4.88 4.88 4.88 4.88 4.88 4.88 4.88 4.88 9.88 9.88 9.88 9.88 9.88 9.88 9.88 9.88 9.88 9.88 9.88 9.88 9.88 9.88 9.88 9.88 9.88 9.88 9.88 9.88 9.88 9.88 9.88 4.88 4.88 4.88 4.88 4.88 4.88 4.88 4.88 4.88 4.88 4.88 4.88 4.88 4.88 4.88 4.88 4.88 4.88 4.88 4.88 4.88 4.88 4.88 4.88 4.88 4.88 4.88 4.88 4.88 4.88 4.88 4.88 4.88 4.88 4.88 4.88 9.88 9.88 9.88 9.88 9.88 9.88 9.88 9.88 9.88 9.88 9.88 9.88 9.88 9.88 9.88 9.88 9.88 9.88 9.88 9.88 9.88 9.88 4.88 4.88 4.88 4.88 4.88 4.88 9.88 9.88 9.88 9.88 9.88 4.88 4.88 4.88 4.88 4.88 4.88 4.88 4.88 4.88 4.88 4.88 4.88 4.88 4.88 4.88 4.88 4.88 4.88 9.88 9.88 9.88 9.88 9.88 9.88 9.88 9.88 9.88 9.88 9.88 9.88 9.88 9.88 9.88 9.88 9.88 9.88 9.88 9.88 9.88 9.88 9.88 9.88 9.88 9.88 9.88 9.88 4.88 4.88 4.88 9.88 9.88 9.88 9.88 9.88 9.88 9.88 9.88 9.88 9.88 9.88 9.88 9.88 9.88 9.88 9.88 9.88 9.88 9.88 9.88 9.88 9.88 9.88 9.88 9.88 9.88 9.88 9.88 9.88 9.88 4.88 4.88 4.88 4.88 4.88 4.88 4.88 4.88 4.88 4.88 4.88 4.88 4.88 4.88 4.88 4.88 4.88 4.88 4.88 4.88 4.88 4.88 4.88 4.88 4.88 4.88 4.88 4.88 4.88 9.88 9.88 9.88 9.88 9.88 9.88 9.88 9.88 9.88 9.88 9.88 9.88 9.88 9.88 9.88 9.88 9.88 9.88 9.88 9.88 9.88 9.88 9.88 9.88 9.88 9.88 9.88 9.88 9.88 9.88 9.88 9.88 9.88 9.88 9.88 9.88 9.88 9.88 9.88 9.88 4.88 4.88 4.88 4.88 4.613001 3.795849 3.081 3.081 3.101925 3.168192 3.730299 4.04436 4.672467 4.996326 -9999 -9999 -9999 -9999 -9999 -9999 -9999 -9999
-9999 -9999 -9999 -9999 -9999 -9999 -9999 -9999 -9999 -9999 -9999 -9999 -9999 -9999 -9999 -9999 -9999 -9999 -9999 -9999 -9999 -9999 -9999 -9999 -9999 -9999 -9999 -9999 -9999 -9999 -9999 -9999 4.988973 4.974377 4.959946 4.945516 4.931043 5.029874 5.132625 5.369 5.269 5.269 5.269 5.269 5.269 5.269 5.269 5.269 5.269 5.269 5.269 5.269 5.269 5.269 5.269 10.269 10.269 10.269 10.269 10.269 10.269 10.269 10.269 10.269 10.269 10.269 10.269 10.269 10.269 10.269 10.269 10.269 10.269 10.269 10.269 10.269 10.269 10.269 10.269 10.269 6.090625 6.237 6.237 6.237 6.237 6.237 6.237 6.237 6.237 6.237 6.237 6.237 6.237 6.237 6.237 6.237 6.237 6.237 6.237 6.237 6.237 6.237 6.237 6.237 6.237 6.237 6.237 6.237 6.237 6.237 6.237 6.237 6.237 6.237 6.237 6.237 6.237 6.237 6.237 6.237 6.237 6.237 6.237 6.237 6.237 6.237 6.237 6.237 6.237 6.237 6.237 6.237 6.237 6.237 6.237 6.237 6.237 6.237 6.237 6.237 6.237 6.237 6.237 6.237 6.237 6.015229 5.269 5.269 5.269 5.269 5.269 5.269 5.269 5.269 5.269 5.269 5.269 5.269 5.269 5.255045 5.039732 4.665941 4.623066 4.623066 4.629615 4.717515 4.841761 4.845545 4.835744 4.683996 4.69919 4.03056 3.181 3.081 3.081 3.081 3.081 3.081 3.081 3.181 3.521685 3.7588 4.148148 4.669178 4.88 4.88 4.88 4.88 4.88 4.88 4.88 4.88 4.88 4.88 4.88 4.88 4.88 4.88 4.88 4.88 4.88 4.88 4.88 4.88 4.88 4.88 4.88 4.88 4.88 4.88 4.88 4.88 4.88 9.88 9.88 9.88 9.88 9.88 9.88 9.88 9.88 9.88 9.88 9.88 9.88 9.88 9.88 9.88 9.88 9.88 9.88 9.88 9.88 9.88 9.88 9.88 9.88 9.88 4.88 4.88 4.88 4.88 4.88 4.88 4.88 4.88 4.88 4.88 4.88 4.88 4.88 4.88 4.88 4.88 4.88 4.88 4.88 4.88 4.88 4.88 4.88 4.88 4.88 4.88 4.88 4.88 4.88 4.88 4.88 4.88 4.88 4.88 4.88 4.88 9.88 9.88 9.88 9.88 9.88 9.88 9.88 9.88 9.88 9.88 9.88 9.88 9.88 9.88 9.88 9.88 9.88 9.88 9.88 4.88 4.88 4.88 4.88 4.88 4.88 4.88 4.88 4.88 9.88 9.88 9.88 9.88 9.88 9.88 4.88 4.88 4.88 4.88 4.88 4.88 4.88 4.88 3.892554 0.8213401 0.8215894 1.446889 4.88 4.88 4.88 4.88 4.88 9.88 9.88 9.88 9.88 9.88 9.88 9.88 9.88 9.88 9.88 9.88 9.88 9.88 9.88 9.88 9.88 9.88 9.88 9.88 9.88 9.88 9.88 9.88 9.88 9.88 9.88 9.88 9.88 4.88 4.88 4.88 9.88 9.88 9.88 9.88 9.88 9.88 9.88 9.88 9.88 9.88 9.88 9.88 9.88 9.88 9.88 9.88 9.88 9.88 9.88 9.88 9.88 9.88 9.88 9.88 9.88 9.88 9.88 4.88 4.88 4.88 4.88 4.88 4.88 4.88 4.88 4.88 4.88 4.88 4.88 4.88 4.88 4.88 4.88 4.88 4.88 4.88 4.88 4.88 4.88 4.88 4.88 4.88 4.88 4.88 4.88 4.88 4.88 4.88 4.88 4.88 9.88 9.88 9.88 9.88 9.88 9.88 9.88 9.88 9.88 9.88 9.88 9.88 9.88 9.88 9.88 9.88 9.88 9.88 9.88 9.88 9.88 9.88 9.88 9.88 9.88 9.88 9.88 9.88 9.88 9.88 9.88 9.88 9.88 9.88 9.88 9.88 9.88 9.88 9.88 9.88 4.88 4.88 4.88 4.860099 4.366369 3.081 3.081 3.081 3.188486 3.760479 4.104616 4.484399 4.731118 -9999 -9999 -9999 -9999 -9999 -9999 -9999 -9999
-9999 -9999 -9999 -9999 -9999 -9999 -9999 -9999 -9999 -9999 -9999 -9999 -9999 -9999 -9999 -9999 -9999 -9999 -9999 -9999 -9999 -9999 -9999 -9999 -9999 -9999 -9999 -9999 -9999 -9999 -9999 -9999 -9999 4.954672 4.940003 4.925561 4.911131 4.896701 4.881701 5.094677 5.269 5.269 5.269 5.269 5.269 5.269 5.269 5.269 5.269 5.269 5.269 5.269 5.269 5.269 5.269 5.269 10.269 10.269 10.269 10.269 10.269 10.269 10.269 10.269 10.269 10.269 10.269 10.269 10.269 10.269 10.269 10.269 10.269 10.269 10.269 10.269 10.269 10.269 10.269 10.269 11.09064 6.237 6.237 6.237 6.237 6.237 6.237 6.237 6.237 6.237 6.237 6.237 6.237 6.237 6.237 6.237 6.237 6.237 6.237 6.237 6.237 6.237 6.237 6.237 6.237 6.237 6.237 6.237 6.237 6.237 6.237 6.237 6.237 6.237 6.237 6.237 6.237 6.237 6.237 6.237 6.237 6.237 6.237 6.237 6.237 6.237 6.237 6.237 6.237 6.237 6.237 6.237 6.237 6.237 6.237 6.237 6.237 6.237 6.237 6.237 6.237 6.237 6.237 6.237 6.237 6.024661 5.202376 5.269 5.269 5.269 5.269 5.269 5.269 5.269 5.269 5.269 5.269 5.269 5.269 5.269 5.269 5.025801 4.625655 4.610699 4.591628 4.613904 4.723328 4.833212 4.828993 4.804239 4.669857 4.362436 3.129845 3.081 3.081 3.081 3.081 3.081 3.081 3.081 3.181 3.586951 3.939594 4.163337 4.627823 4.857593 4.860905 4.871047 4.88 4.88 4.88 4.88 4.88 4.88 4.88 4.88 4.88 4.88 4.88 4.88 4.88 4.88 4.88 4.88 4.88 4.88 4.88 4.88 4.88 4.88 9.88 9.88 9.88 9.88 9.88 9.88 9.88 9.88 9.88 9.88 9.88 9.88 9.88 9.88 9.88 9.88 9.88 9.88 9.88 9.88 9.88 9.88 9.88 9.88 9.88 9.88 9.88 4.88 4.88 4.88 4.88 4.88 4.88 4.88 4.88 4.88 4.88 4.88 4.88 4.88 4.88 4.88 4.88 4.88 4.88 4.88 4.88 4.88 4.88 4.88 4.88 4.88 4.88 4.88 4.88 4.88 4.88 4.88 4.88 4.88 4.88 4.88 4.88 4.88 9.88 9.88 9.88 9.88 9.88 9.88 9.88 9.88 9.88 9.88 9.88 9.88 9.88 9.88 9.88 9.88 4.88 4.88 4.88 4.88 4.88 4.88 4.88 4.88 4.88 4.88 4.88 4.88 4.88 9.88 9.88 9.88 9.88 9.88 4.88 4.88 4.88 4.88 4.88 4.88 4.88 4.88 3.851277 0.6208323 0.599 0.599 0.8997723 4.88 4.88 4.88 4.88 9.88 9.88 9.88 9.88 9.88 9.88 9.88 9.88 9.88 9.88 9.88 9.88 9.88 9.88 9.88 9.88 9.88 9.88 9.88 9.88 9.88 9.88 9.88 9.88 9.88 9.88 9.88 9.88 4.88 4.88 4.88 9.88 9.88 9.88 9.88 9.88 9.88 9.88 9.88 9.88 9.88 9.88 9.88 9.88 9.88 9.88 9.88 9.88 9.88 9.88 9.88 9.88 9.88 9.88 9.88 9.88 4.88 4.88 4.88 4.88 4.88 4.88 4.88 4.88 4.88 4.88 4.88 4.88 4.88 4.88 4.88 4.88 4.88 4.88 4.88 4.88 4.88 4.88 4.88 4.88 4.88 4.88 4.88 4.88 4.88 4.88 4.88 4.88 4.88 4.88 4.88 9.88 9.88 9.88 9.88 9.88 9.88 9.88 9.88 9.88 9.88 9.88 9.88 9.88 9.88 9.88 9.88 9.88 9.88 9.88 9.88 9.88 9.88 9.88 9.88 9.88 9.88 9.88 9.88 9.88 9.88 9.88 9.88 9.88 9.88 9.88 9.88 9.88 9.88 9.88 9.88 4.88 4.88 4.88 4.88 4.371356 3.188668 3.081 3.081 3.081 3.111004 3.794985 4.218989 4.676044 4.940641 -9999 -9999 -9999 -9999 -9999 -9999 -9999
-9999 -9999 -9999 -9999 -9999 -9999 -9999 -9999 -9999 -9999 -9999 -9999 -9999 -9999 -9999 -9999 -9999 -9999 -9999 -9999 -9999 -9999 -9999 -9999 -9999 -9999 -9999 -9999 -9999 -9999 -9999 -9999 -9999 4.934637 4.919982 4.905562 4.891177 4.876746 4.862316 5.048482 5.269 5.269 5.269 5.269 5.269 5.269 5.269 5.269 5.269 5.269 5.269 5.269 5.269 5.269 5.269 5.269 5.269 10.269 10.269 10.269 10.269 10.269 10.269 10.269 10.269 10.269 10.269 10.269 10.269 10.269 10.269 10.269 10.269 10.269 10.269 10.269 10.269 10.269 10.269 10.269 10.96527 6.209062 6.237 6.237 6.237 6.237 6.237 6.237 6.237 6.237 6.237 6.237 6.237 6.237 6.237 6.237 6.237 6.237 6.237 6.237 6.237 6.237 6.237 6.237 6.237 6.237 6.237 6.237 6.237 6.237 6.237 6.237 6.237 6.237 6.237 6.237 6.237 6.237 6.237 6.237 6.237 6.237 6.237 6.237 6.237 6.237 6.237 6.237 6.237 6.237 6.237 6.237 6.237 6.237 6.237 6.237 6.237 6.237 6.237 6.237 6.237 6.237 6.237 6.237 6.237 6.237 11.05192 5.369 5.269 5.269 5.269 5.269 5.269 5.269 5.269 5.269 5.269 5.269 5.269 5.269 5.269 5.269 4.635386 4.609185 4.577675 4.577247 4.616622 4.716905 4.779692 4.781 4.781 4.625782 4.373328 3.181 3.081 3.081 3.081 3.081 3.081 3.081 3.181 3.511033 4.010238 4.102035 4.197857 4.413046 4.47733 4.682953 4.921626 4.88 4.88 4.88 4.88 4.88 4.88 4.88 4.88 4.88 4.88 4.88 4.88 4.88 4.88 4.88 4.88 4.88 4.88 4.88 9.88 9.88 9.88 9.88 9.88 9.88 9.88 9.88 9.88 9.88 9.88 9.88 9.88 9.88 9.88 9.88 9.88 9.88 9.88 9.88 9.88 9.88 9.88 9.88 9.88 9.88 9.88 9.88 4.88 4.88 4.88 4.88 4.88 4.88 4.88 4.88 4.88 4.88 4.88 4.88 4.88 4.88 4.88 4.88 4.88 4.88 4.88 4.88 4.88 4.88 4.88 4.88 4.88 4.88 4.88 4.88 4.88 4.88 4.88 4.88 4.88 4.88 4.88 4.88 4.88 4.88 4.88 9.88 9.88 9.88 9.88 9.88 9.88 9.88 9.88 9.88 9.88 9.88 4.88 4.88 4.88 4.88 4.88 4.88 4.88 4.88 4.88 4.88 4.88 4.88 4.88 4.88 4.88 4.88 4.88 9.88 9.88 9.88 9.88 9.88 4.88 4.88 4.88 4.88 4.88 4.88 4.88 4.88 4.88 4.079949 0.599 0.599 0.900063 4.88 4.88 4.88 4.88 9.88 9.88 9.88 9.88 9.88 9.88 9.88 9.88 9.88 9.88 9.88 9.88 9.88 9.88 9.88 9.88 9.88 9.88 9.88 9.88 9.88 9.88 9.88 9.88 9.88 9.88 9.88 9.88 4.88 4.88 4.88 4.88 9.88 9.88 9.88 9.88 9.88 9.88 9.88 9.88 9.88 9.88 9.88 9.88 9.88 9.88 9.88 9.88 9.88 9.88 9.88 9.88 9.88 9.88 4.88 4.88 4.88 4.88 4.88 4.88 4.88 4.88 4.88 4.88 4.88 4.88 4.88 4.88 4.88 4.883391 5.042456 5.042424 4.883721 4.88 4.88 4.88 4.88 4.88 4.88 4.88 4.88 4.88 4.88 4.88 4.88 4.88 4.88 4.88 4.88 4.88 4.88 9.88 9.88 9.88 9.88 9.88 9.88 9.88 9.88 9.88 9.88 9.88 9.88 9.88 9.88 9.88 9.88 9.88 9.88 9.88 9.88 9.88 9.88 9.88 9.88 9.88 9.88 9.88 9.88 9.88 9.88 9.88 9.88 9.88 9.88 9.88 9.88 9.88 9.88 9.88 9.88 4.88 4.88 4.88 4.88 4.670537 3.419549 3.081 3.081 3.081 3.19903 3.718506 4.106358 4.443997 4.905924 -9999 -9999 -9999 -9999 -9999 -9999 -9999
-9999 -9999 -9999 -9999 -9999 -9999 -9999 -9999 -9999 -9999 -9999 -9999 -9999 -9999 -9999 -9999 -9999 -9999 -9999 -9999 -9999 -9999 -9999 -9999 -9999 -9999 -9999 -9999 -9999 -9999 -9999 -9999 -9999 -9999 4.896036 4.883378 4.869917 4.856077 4.84215 4.827931 5.361809 5.269 5.269 5.269 5.269 5.269 5.269 5.269 5.269 5.269 5.269 5.269 5.269 5.269 5.269 5.269 5.269 10.269 10.269 10.269 10.269 10.269 10.269 10.269 10.269 10.269 10.269 10.269 10.269 10.269 10.269 10.269 10.269 10.269 10.269 10.269 10.269 10.269 10.269 10.269 10.269 6.053921 6.237 6.237 6.237 6.237 6.237 6.237 6.237 6.237 6.237 6.237 6.237 6.237 6.237 6.237 6.237 6.237 6.237 6.237 6.237 6.237 6.237 6.237 6.237 6.237 6.237 6.237 6.237 6.237 6.237 6.237 6.237 6.237 6.237 6.237 6.237 6.237 6.237 6.237 6.237 6.237 6.237 6.237 6.237 6.237 6.237 6.237 6.237 6.237 6.237 6.237 6.237 6.237 6.237 6.237 6.237 6.237 6.237 6.237 6.237 6.237 11.237 11.237 11.237 11.237 11.05189 5.369 5.269 5.269 5.269 5.269 5.269 5.269 5.269 5.269 5.269 5.269 5.269 5.269 5.269 5.269 5.050133 4.614344 4.597635 4.572489 4.590639 4.656252 4.737497 4.775306 4.781 4.759948 4.395843 3.487744 3.181 3.081 3.081 3.081 3.081 3.081 3.081 3.181 3.572488 4.035004 4.186462 4.145617 4.140416 4.027 4.496572 4.88 4.88 4.88 4.88 4.88 4.88 4.88 4.88 4.88 4.88 4.88 4.88 4.88 4.88 4.88 4.88 4.88 4.88 9.88 9.88 9.88 9.88 9.88 9.88 9.88 9.88 9.88 9.88 9.88 9.88 9.88 9.88 9.88 9.88 9.88 9.88 9.88 9.88 9.88 9.88 9.88 9.88 9.88 9.88 9.88 4.88 4.88 4.88 4.88 4.88 4.88 4.88 4.88 4.88 4.88 4.88 4.88 4.88 4.88 4.88 4.88 4.88 4.88 4.88 4.88 4.88 4.88 4.88 4.88 4.88 4.88 4.88 4.88 4.88 4.88 4.88 4.88 4.88 4.88 4.88 4.88 4.88 4.88 4.88 4.88 4.88 9.88 9.88 9.88 9.88 9.88 9.88 9.88 9.88 9.88 4.88 4.88 4.88 4.88 4.88 4.88 4.88 4.88 4.88 4.88 4.88 4.88 4.88 4.88 4.88 4.88 4.88 4.88 4.88 9.88 9.88 9.88 9.88 9.88 9.88 4.88 4.88 4.88 4.88 4.88 4.88 4.88 4.88 4.206676 1.703394 1.703137 2.003105 4.88 4.88 4.88 4.88 9.88 9.88 9.88 9.88 9.88 9.88 9.88 9.88 9.88 9.88 9.88 9.88 9.88 9.88 9.88 9.88 9.88 9.88 9.88 9.88 9.88 9.88 9.88 9.88 9.88 9.88 9.88 9.88 4.88 4.88 4.88 4.88 9.88 9.88 9.88 9.88 9.88 9.88 9.88 9.88 9.88 9.88 9.88 9.88 9.88 9.88 9.88 9.88 9.88 9.88 9.88 4.88 4.88 4.88 4.88 4.88 4.88 4.88 4.88 4.88 4.88 4.88 4.88 4.88 4.88 4.88 4.88 4.898786 5.091594 5.010064 5.332 5.332 5.011747 4.890867 4.88 4.88 4.88 4.88 4.88 4.88 4.88 4.88 4.88 4.88 4.88 4.88 4.88 4.88 4.88 4.88 4.88 4.88 9.88 9.88 9.88 9.88 9.88 9.88 9.88 9.88 9.88 9.88 9.88 9.88 9.88 9.88 9.88 9.88 9.88 9.88 9.88 9.88 9.88 9.88 9.88 9.88 9.88 9.88 9.88 9.88 9.88 9.88 9.88 9.88 9.88 9.88 9.88 9.88 9.88 9.88 9.88 9.88 4.88 4.88 4.88 4.88 3.489467 3.181 3.081 3.081 3.165638 3.733701 4.105374 4.406618 4.740148 -9999 -9999 -9999 -9999 -9999 -9999 -9999
-9999 -9999 -9999 -9999 -9999 -9999 -9999 -9999 -9999 -9999 -9999 -9999 -9999 -9999 -9999 -9999 -9999 -9999 -9999 -9999 -9999 -9999 -9999 -9999 -9999 -9999 -9999 -9999 -9999 -9999 -9999 -9999 -9999 -9999 -9999 4.854864 4.843071 4.831007 4.818636 4.805634 5.296996 5.269 5.269 5.269 5.269 5.269 5.269 5.269 5.269 5.269 5.269 5.269 5.269 5.269 5.269 5.269 5.269 5.269 10.269 10.269 10.269 10.269 10.269 10.269 10.269 10.269 10.269 10.269 10.269 10.269 10.269 10.269 10.269 10.269 10.269 10.269 10.269 10.269 10.269 10.269 10.369 11.05394 6.237 6.237 6.237 6.237 6.237 6.237 6.237 6.237 6.237 6.237 6.237 6.237 6.237 6.237 6.237 6.237 6.237 6.237 6.237 6.237 6.237 6.237 6.237 6.237 6.237 6.237 6.237 6.237 6.237 6.237 6.237 6.237 6.237 6.237 6.237 6.237 6.237 6.237 6.237 6.237 6.237 6.237 6.237 6.237 6.237 6.237 6.237 6.237 6.237 6.237 6.237 6.237 6.237 6.237 6.237 6.237 6.237 6.237 6.237 6.237 11.237 11.237 6.237 6.237 6.051865 5.369 5.269 5.269 5.269 5.269 5.269 5.269 5.269 5.269 5.269 5.269 5.269 5.269 5.269 5.269 5.287774 5.079182 4.636707 4.594923 4.571695 4.586331 4.645498 4.735542 4.772515 4.781 4.639725 4.374509 3.598943 3.181 3.081 3.081 3.081 3.081 3.081 3.081 3.181 3.578137 3.852739 4.158478 4.127 4.127 4.027 4.616111 4.88 4.88 4.88 4.88 4.88 4.88 4.88 4.88 4.88 4.88 4.88 4.88 4.88 4.88 4.88 4.88 4.88 9.88 9.88 9.88 9.88 9.88 9.88 9.88 9.88 9.88 9.88 9.88 9.88 9.88 9.88 9.88 9.88 9.88 9.88 9.88 9.88 9.88 9.88 9.88 9.88 9.88 4.88 4.88 4.88 4.88 4.88 4.88 4.88 4.88 4.88 4.88 4.88 4.88 4.88 4.88 4.88 4.88 4.88 4.88 4.88 4.88 4.88 4.88 4.88 4.88 4.88 4.88 4.88 4.88 4.88 4.88 4.88 4.88 4.88 4.88 4.88 4.88 4.88 4.88 4.88 4.88 4.88 4.88 4.88 9.88 9.88 9.88 9.88 9.88 9.88 9.88 9.88 4.88 4.88 4.88 4.88 4.88 4.88 4.88 4.88 4.88 4.88 4.88 4.88 4.88 4.88 4.88 4.88 4.88 4.88 4.88 4.88 9.88 9.88 9.88 9.88 9.88 9.88 4.88 4.88 4.88 4.88 4.88 4.88 4.88 4.88 4.88 4.88 4.88 4.88 4.88 4.88 4.88 4.88 9.88 9.88 9.88 9.88 9.88 9.88 9.88 9.88 9.88 9.88 9.88 9.88 9.88 9.88 9.88 9.88 9.88 9.88 9.88 9.88 9.88 9.88 9.88 9.88 9.88 9.88 9.88 9.88 4.88 4.88 4.88 4.88 9.88 9.88 9.88 9.88 9.88 9.88 9.88 9.88 9.88 9.88 9.88 9.88 9.88 9.88 9.88 4.88 4.88 4.88 4.88 4.88 4.88 4.88 4.88 4.88 4.88 4.88 4.88 4.88 4.88 4.88 4.88 4.88 5.025389 5.040797 5.040765 4.98976 5.332 5.332 5.332 5.332 5.332 5.068912 4.901729 4.88 4.88 4.88 4.88 4.88 4.88 4.88 4.88 4.88 4.88 4.88 4.88 4.88 4.88 4.88 4.88 4.88 9.88 9.88 9.88 9.88 9.88 9.88 9.88 9.88 9.88 9.88 9.88 9.88 9.88 9.88 9.88 9.88 9.88 9.88 9.88 9.88 9.88 9.88 9.88 9.88 9.88 9.88 9.88 9.88 9.88 9.88 9.88 9.88 9.88 9.88 9.88 9.88 9.88 9.88 9.88 9.88 4.88 4.88 4.88 4.88 3.714879 3.177054 3.081 3.081 3.081 3.181805 3.77604 4.04736 4.4716 4.791953 -9999 -9999 -9999 -9999 -9999 -9999
-9999 -9999 -9999 -9999 -9999 -9999 -9999 -9999 -9999 -9999 -9999 -9999 -9999 -9999 -9999 -9999 -9999 -9999 -9999 -9999 -9999 -9999 -9999 -9999 -9999 -9999 -9999 -9999 -9999 -9999 -9999 -9999 -9999 -9999 -9999 4.825701 4.813668 4.801649 4.789619 4.779998 4.894309 5.235231 5.369 5.269 5.269 5.269 5.269 5.269 5.269 5.269 5.269 5.269 5.269 5.269 5.269 5.269 5.269 5.269 10.269 10.269 10.269 10.269 10.269 10.269 10.269 10.269 10.269 10.269 10.269 10.269 10.269 10.269 10.269 10.269 10.269 10.269 10.269 10.269 10.269 10.269 10.369 11.05395 6.237 6.237 6.237 6.237 6.237 6.237 6.237 6.237 6.237 6.237 6.237 6.237 6.237 6.237 6.237 6.237 6.237 6.237 6.237 6.237 6.237 6.237 6.237 6.237 6.237 6.237 6.237 6.237 6.237 6.237 6.237 6.237 6.237 6.237 6.237 6.237 6.237 6.237 6.237 6.237 6.237 6.237 6.237 6.237 6.237 6.237 6.237 6.237 6.237 6.237 6.237 6.237 6.237 6.237 6.237 6.237 6.237 6.237 6.237 6.237 6.237 6.237 6.237 6.237 6.051836 5.369 5.269 5.269 5.269 5.269 5.269 5.269 5.269 5.269 5.269 5.269 5.269 5.269 5.269 5.269 5.269 5.206747 5.007326 4.653006 4.603517 4.568 4.583991 4.648558 4.734047 4.781 4.768167 4.65811 4.384949 3.595721 3.081 3.081 3.081 3.081 3.081 3.081 3.081 3.181 3.33989 3.880836 4.16131 4.127 4.127 4.64577 4.88 4.761505 4.522011 4.713335 4.98 4.88 4.88 4.88 4.88 4.88 4.88 4.88 4.88 4.88 4.88 4.88 9.88 9.88 9.88 9.88 9.88 9.88 9.88 9.88 9.88 9.88 9.88 9.88 9.88 9.88 9.88 9.88 9.88 9.88 9.88 9.88 9.88 9.88 9.88 9.88 9.88 4.88 4.88 4.88 4.88 4.88 4.88 4.88 4.88 4.88 4.88 4.88 4.88 4.88 4.88 4.88 4.88 4.88 4.88 4.88 4.88 4.88 4.88 4.88 4.88 4.88 4.88 4.88 4.88 4.88 4.88 4.88 4.88 4.88 4.88 4.88 4.88 4.88 4.88 4.88 4.88 4.88 4.88 4.88 4.88 4.88 9.88 9.88 9.88 9.88 9.88 9.88 9.88 9.88 4.88 4.88 4.88 4.88 4.88 4.88 4.88 4.88 4.88 4.88 4.88 4.88 4.88 4.88 4.88 4.88 4.88 4.88 4.88 4.88 9.88 9.88 9.88 9.88 9.88 4.88 4.88 4.88 4.88 4.88 4.88 4.88 4.88 4.88 4.88 4.88 4.88 4.88 4.88 4.88 4.88 4.88 9.88 9.88 9.88 9.88 9.88 9.88 9.88 9.88 9.88 9.88 9.88 9.88 9.88 9.88 9.88 9.88 9.88 9.88 9.88 9.88 9.88 9.88 9.88 9.88 9.88 9.88 9.88 9.88 4.88 4.88 4.88 4.88 9.88 9.88 9.88 9.88 9.88 9.88 9.88 9.88 9.88 9.88 9.88 4.88 4.88 4.88 4.88 4.88 4.88 4.88 4.88 4.88 4.88 4.88 4.88 4.88 4.88 4.88 4.88 4.88 4.88 5.061041 5.112142 5.189013 5.52742 5.573379 5.734202 5.731489 5.514508 5.332 5.332 5.332 5.332 5.041164 4.88 4.88 4.88 4.88 4.88 4.88 4.88 4.88 4.88 4.88 4.88 4.88 4.88 4.88 4.88 4.88 4.88 9.88 9.88 9.88 9.88 9.88 9.88 9.88 9.88 9.88 9.88 9.88 9.88 9.88 9.88 9.88 9.88 9.88 9.88 9.88 9.88 9.88 9.88 9.88 9.88 9.88 9.88 9.88 9.88 9.88 9.88 9.88 9.88 9.88 9.88 9.88 9.88 9.88 9.88 9.88 9.88 4.88 4.88 4.88 4.88 4.120832 3.458557 3.181 3.081 3.081 3.159961 3.706962 3.960118 4.40676 4.757687 -9999 -9999 -9999 -9999 -9999 -9999
-9999 -9999 -9999 -9999 -9999 -9999 -9999 -9999 -9999 -9999 -9999 -9999 -9999 -9999 -9999 -9999 -9999 -9999 -9999 -9999 -9999 -9999 -9999 -9999 -9999 -9999 -9999 -9999 -9999 -9999 -9999 -9999 -9999 -9999 -9999 4.825701 4.813668 4.801649 4.789619 4.779998 4.894309 5.235231 5.369 5.269 5.269 5.269 5.269 5.269 5.269 5.269 5.269 5.269 5.269 5.269 5.269 5.269 5.269 5.269 10.269 10.269 10.269 10.269 10.269 10.269 10.269 10.269 10.269 10.269 10.269 10.269 10.269 10.269 10.269 10.269 10.269 10.269 10.269 10.269 10.269 10.269 10.369 11.05395 6.237 6.237 6.237 6.237 6.237 6.237 6.237 6.237 6.237 6.237 6.237 6.237 6.237 6.237 6.237 6.237 6.237 6.237 6.237 6.237 6.237 6.237 6.237 6.237 6.237 6.237 6.237 6.237 6.237 6.237 6.237 6.237 6.237 6.237 6.237 6.237 6.237 6.237 6.237 6.237 6.237 6.237 6.237 6.237 6.237 6.237 6.237 6.237 6.237 6.237 6.237 6.237 6.237 6.237 6.237 6.237 6.237 6.237 6.237 6.237 6.237 6.237 6.237 6.237 6.051836 5.369 5.269 5.269 5.269 5.269 5.269 5.269 5.269 5.269 5.269 5.269 5.269 5.269 5.269 5.269 5.269 5.206747 5.007326 4.653006 4.603517 4.568 4.583991 4.648558 4.734047 4.781 4.768167 4.65811 4.384949 3.595721 3.081 3.081 3.081 3.081 3.081 3.081 3.081 3.181 3.33989 3.880836 4.16131 4.127 4.127 4.64577 4.88 4.761505 4.522011 4.713335 4.98 4.88 4.88 4.88 4.88 4.88 4.88 4.88 4.88 4.88 4.88 4.88 9.88 9.88 9.88 9.88 9.88 9.88 9.88 9.88 9.88 9.88 9.88 9.88 9.88 9.88 9.88 9.88 9.88 9.88 9.88 9.88 9.88 9.88 9.88 9.88 9.88 4.88 4.88 4.88 4.88 4.88 4.88 4.88 4.88 4.88 4.88 4.88 4.88 4.88 4.88 4.88 4.88 4.88 4.88 4.88 4.88 4.88 4.88 4.88 4.88 4.88 4.88 4.88 4.88 4.88 4.88 4.88 4.88 4.88 4.88 4.88 4.88 4.88 4.88 4.88 4.88 4.88 4.88 4.88 4.88 4.88 9.88 9.88 9.88 9.88 9.88 9.88 9.88 9.88 4.88 4.88 4.88 4.88 4.88 4.88 4.88 4.88 4.88 4.88 4.88 4.88 4.88 4.88 4.88 4.88 4.88 4.88 4.88 4.88 9.88 9.88 9.88 9.88 9.88 4.88 4.88 4.88 4.88 4.88 4.88 4.88 4.88 4.88 4.88 4.88 4.88 4.88 4.88 4.88 4.88 4.88 9.88 9.88 9.88 9.88 9.88 9.88 9.88 9.88 9.88 9.88 9.88 9.88 9.88 9.88 9.88 9.88 9.88 9.88 9.88 9.88 9.88 9.88 9.88 9.88 9.88 9.88 9.88 9.88 4.88 4.88 4.88 4.88 9.88 9.88 9.88 9.88 9.88 9.88 9.88 9.88 9.88 9.88 9.88 4.88 4.88 4.88 4.88 4.88 4.88 4.88 4.88 4.88 4.88 4.88 4.88 4.88 4.88 4.88 4.88 4.88 4.88 5.061041 5.112142 5.189013 5.52742 5.573379 5.734202 5.731489 5.514508 5.332 5.332 5.332 5.332 5.041164 4.88 4.88 4.88 4.88 4.88 4.88 4.88 4.88 4.88 4.88 4.88 4.88 4.88 4.88 4.88 4.88 4.88 9.88 9.88 9.88 9.88 9.88 9.88 9.88 9.88 9.88 9.88 9.88 9.88 9.88 9.88 9.88 9.88 9.88 9.88 9.88 9.88 9.88 9.88 9.88 9.88 9.88 9.88 9.88 9.88 9.88 9.88 9.88 9.88 9.88 9.88 9.88 9.88 9.88 9.88 9.88 9.88 4.88 4.88 4.88 4.88 4.120832 3.458557 3.181 3.081 3.081 3.159961 3.706962 3.960118 4.40676 4.757687 -9999 -9999 -9999 -9999 -9999 -9999
-9999 -9999 -9999 -9999 -9999 -9999 -9999 -9999 -9999 -9999 -9999 -9999 -9999 -9999 -9999 -9999 -9999 -9999 -9999 -9999 -9999 -9999 -9999 -9999 -9999 -9999 -9999 -9999 -9999 -9999 -9999 -9999 -9999 -9999 -9999 -9999 4.783491 4.775569 4.770655 4.767731 4.667 5.225028 5.45058 5.269 5.269 5.269 5.269 5.269 5.269 5.269 5.269 5.269 5.269 5.269 5.269 5.269 5.269 5.269 5.269 10.269 10.269 10.269 10.269 10.269 10.269 10.269 10.269 10.269 10.269 10.269 10.269 10.269 10.269 10.269 10.269 10.269 10.269 10.269 10.269 10.269 10.369 10.69328 6.208017 6.237 6.237 6.237 6.237 6.237 6.237 6.237 6.237 6.237 6.237 6.237 6.237 6.237 6.237 6.237 6.237 6.237 6.237 6.237 6.237 6.237 6.237 6.237 6.237 6.237 6.237 6.237 6.237 6.237 6.237 6.237 6.237 6.237 6.237 6.237 6.237 6.237 6.237 6.237 6.237 6.237 6.237 6.237 6.237 6.237 6.237 6.237 6.237 6.237 6.237 6.237 6.237 6.237 6.237 6.237 6.237 6.237 6.237 6.237 6.237 6.237 6.237 6.237 6.051807 5.369 5.269 5.269 5.269 5.269 5.269 5.269 5.269 5.269 5.269 5.269 5.269 5.269 5.269 5.269 5.269 5.269 5.223635 5.075681 4.644055 4.568 4.568 4.586682 4.664169 4.745411 4.781 4.773835 4.686708 4.305956 3.120462 3.081 3.081 3.081 3.081 3.081 3.081 3.081 3.181 3.594726 3.860706 4.132107 4.127 4.440176 4.440202 4.436544 4.027 4.306914 4.535775 4.98 4.88 4.88 4.88 4.88 4.88 4.88 4.88 4.88 4.88 9.88 9.88 9.88 9.88 9.88 9.88 9.88 9.88 9.88 9.88 9.88 9.88 9.88 9.88 9.88 9.88 9.88 9.88 9.88 9.88 9.88 9.88 9.88 9.88 9.88 4.88 4.88 4.88 4.88 4.88 4.88 4.88 4.88 4.88 4.88 4.88 4.88 4.88 4.88 4.88 4.88 4.88 4.88 4.88 4.88 4.88 4.88 4.88 4.88 4.88 4.88 4.88 4.88 4.88 4.88 4.88 4.88 4.88 4.88 4.88 4.88 4.88 4.88 4.88 4.88 4.88 4.88 4.88 4.88 4.88 4.88 9.88 9.88 9.88 9.88 9.88 9.88 9.88 9.88 4.88 4.88 4.88 4.88 4.88 4.88 4.88 4.88 4.88 4.88 4.88 4.88 4.88 4.88 4.88 4.88 4.88 4.88 4.88 4.88 9.88 9.88 9.88 9.88 9.88 4.88 4.88 4.88 4.88 4.88 4.88 4.88 4.88 4.88 4.88 4.88 4.88 4.88 4.877148 4.604359 2.352343 2.302879 9.414374 9.88 9.88 9.88 9.88 9.88 9.88 9.88 9.88 9.88 9.88 9.88 9.88 9.88 9.88 9.88 9.88 9.88 9.88 9.88 9.88 9.88 9.88 9.88 9.88 7.540385 7.310779 9.046295 4.88 4.88 4.88 4.88 9.88 9.88 9.88 9.88 9.88 9.88 9.88 9.88 4.88 4.88 4.88 4.88 4.88 4.88 4.88 4.88 4.88 4.88 4.88 4.88 4.88 4.88 4.88 4.88 4.88 4.88 4.915362 5.179566 5.198436 5.384217 5.52793 5.765655 5.950393 6.16019 6.416196 6.407674 6.110266 5.332 5.332 5.332 5.332 5.164778 4.924789 4.88 4.88 4.88 4.88 4.88 4.88 4.88 4.88 4.88 4.88 4.88 4.88 4.88 4.88 4.88 4.88 4.88 9.88 9.88 9.88 9.88 9.88 9.88 9.88 9.88 9.88 9.88 9.88 9.88 9.88 9.88 9.88 9.88 9.88 9.88 9.88 9.88 9.88 9.88 9.88 9.88 9.88 9.88 9.88 9.88 9.88 9.88 9.88 9.88 9.88 9.88 9.88 9.88 9.88 9.88 9.88 9.88 4.88 4.88 4.88 4.369942 3.48711 3.148719 3.081 3.081 3.110131 3.445923 3.785664 4.072786 4.566891 -9999 -9999 -9999 -9999 -9999 -9999
-9999 -9999 -9999 -9999 -9999 -9999 -9999 -9999 -9999 -9999 -9999 -9999 -9999 -9999 -9999 -9999 -9999 -9999 -9999 -9999 -9999 -9999 -9999 -9999 -9999 -9999 -9999 -9999 -9999 -9999 -9999 -9999 -9999 -9999 -9999 -9999 -9999 4.767 4.767 4.767 4.767 5.00481 5.255317 5.269 5.269 5.269 5.269 5.269 5.269 5.269 5.269 5.269 5.269 5.269 5.269 5.269 5.269 5.269 5.269 10.269 10.269 10.269 10.269 10.269 10.269 10.269 10.269 10.269 10.269 10.269 10.269 10.269 10.269 10.269 10.269 10.269 10.269 10.269 10.269 10.269 10.269 10.269 6.017234 6.237 6.237 6.237 6.237 6.237 6.237 6.237 6.237 6.237 6.237 6.237 6.237 6.237 6.237 6.237 6.237 6.237 6.237 6.237 6.237 6.237 6.237 6.237 6.237 6.237 6.237 6.237 6.237 6.237 6.237 6.237 6.237 6.237 6.237 6.237 6.237 6.237 6.237 6.237 6.237 6.237 6.237 6.237 6.237 6.237 6.237 6.237 6.237 6.237 6.237 6.237 6.237 6.237 6.237 6.237 6.237 6.237 6.237 6.237 6.237 6.237 6.237 6.237 6.051778 5.269 5.269 5.269 5.269 5.269 5.269 5.269 5.269 5.269 5.269 5.269 5.269 5.269 5.269 5.269 5.269 5.269 5.269 5.086951 4.621911 4.568 4.568 4.571416 4.597482 4.672986 4.755014 4.781 4.77785 4.616393 3.162791 3.081 3.081 3.081 3.081 3.081 3.081 3.081 3.081 3.102909 3.549966 4.050639 4.127 4.127 4.127 4.127 4.127 4.127 4.077284 4.352016 4.98 4.88 4.88 4.88 4.88 4.88 4.88 4.88 4.88 4.88 9.88 9.88 9.88 9.88 9.88 9.88 9.88 9.88 9.88 9.88 9.88 9.88 9.88 9.88 9.88 9.88 9.88 9.88 9.88 9.88 9.88 4.88 4.88 4.88 4.88 4.88 4.88 4.88 4.88 4.88 4.88 4.88 4.88 4.88 4.88 4.88 4.88 4.88 4.88 4.88 4.88 4.88 4.88 4.88 4.88 4.88 4.88 4.88 4.88 4.88 4.88 4.88 4.88 4.88 4.88 4.88 4.88 4.88 4.88 4.88 4.88 4.88 4.88 4.88 4.88 4.88 4.88 4.88 4.88 4.88 9.88 9.88 9.88 9.88 4.88 4.88 4.88 4.88 4.88 4.88 4.88 4.88 4.88 4.88 4.88 4.88 4.88 4.88 4.88 4.88 4.88 4.88 4.88 4.88 4.88 4.88 4.88 4.88 4.88 9.88 9.88 9.88 9.88 9.88 4.88 4.88 4.88 4.88 4.88 4.88 4.88 4.88 4.88 4.88 4.88 4.88 4.869164 4.315529 2.901955 0.243 4.173729 9.88 9.88 9.88 9.88 9.88 9.88 9.88 9.88 9.88 9.88 9.88 9.88 9.88 9.88 9.88 9.88 9.88 9.88 9.88 9.88 9.88 6.85556 6.606439 6.606725 0.4786629 0.243 3.605453 4.88 4.88 4.88 4.88 4.88 9.88 9.88 4.88 4.88 4.88 4.88 4.88 4.88 4.88 4.88 4.88 4.88 4.88 4.88 4.88 4.88 4.88 4.88 4.88 4.98 4.98 5.112046 5.391327 5.342408 5.346848 5.506606 5.594204 5.507936 5.517822 5.910398 6.107722 6.457554 6.404 6.404 6.400603 6.437237 5.908802 5.342307 5.332 5.332 5.332 5.058249 4.88 4.88 4.88 4.88 4.88 4.88 4.88 4.88 4.88 4.88 4.88 4.88 4.88 4.88 4.88 4.88 4.88 9.88 9.88 9.88 9.88 9.88 9.88 9.88 9.88 9.88 9.88 9.88 9.88 9.88 9.88 9.88 9.88 9.88 9.88 9.88 9.88 9.88 9.88 9.88 9.88 9.88 9.88 9.88 9.88 9.88 9.88 9.88 9.88 9.88 9.88 9.88 9.88 9.88 9.88 9.88 9.88 4.88 4.88 4.88 4.606334 3.771509 3.478898 3.081 3.081 3.081 3.139187 3.724758 4.085588 4.476907 -9999 -9999 -9999 -9999 -9999 -9999
-9999 -9999 -9999 -9999 -9999 -9999 -9999 -9999 -9999 -9999 -9999 -9999 -9999 -9999 -9999 -9999 -9999 -9999 -9999 -9999 -9999 -9999 -9999 -9999 -9999 -9999 -9999 -9999 -9999 -9999 -9999 -9999 -9999 -9999 -9999 -9999 -9999 4.767 4.767 4.767 4.767 4.667 5.054381 5.299767 5.269 5.269 5.269 5.269 5.269 5.269 5.269 5.269 5.269 5.269 5.269 5.269 5.269 5.269 5.269 10.269 10.269 10.269 10.269 10.269 10.269 10.269 10.269 10.269 10.269 10.269 10.269 10.269 10.269 10.269 10.269 10.269 10.269 10.269 10.269 10.269 10.269 10.369 11.01725 6.237 6.237 6.237 6.237 6.237 6.237 6.237 6.237 6.237 6.237 6.237 6.237 6.237 6.237 6.237 6.237 6.237 6.237 6.237 6.237 6.237 6.237 6.237 6.237 6.237 6.237 6.237 6.237 6.237 6.237 6.237 6.237 6.237 6.237 6.237 6.237 6.237 6.237 6.237 6.237 6.237 6.237 6.237 6.237 6.237 6.237 6.237 6.237 6.237 6.237 6.237 6.237 6.237 6.237 6.237 6.237 6.237 6.237 6.237 6.237 6.237 6.237 6.237 6.051749 5.269 5.269 5.269 5.269 5.269 5.269 5.269 5.269 5.269 5.269 5.269 5.269 5.269 5.269 5.269 5.269 5.269 5.269 5.23686 5.0131 4.656585 4.568 4.563143 4.552629 4.586914 4.682014 4.781 4.781 4.780235 4.33036 3.192036 3.081 3.081 3.081 3.081 3.081 3.081 3.081 3.081 3.154821 3.689173 4.027 4.127 4.127 4.127 4.127 4.127 4.127 4.361965 4.98 4.88 4.88 4.88 4.88 4.88 4.88 4.88 4.88 4.88 9.88 9.88 9.88 9.88 9.88 9.88 9.88 9.88 9.88 9.88 9.88 9.88 9.88 9.88 9.88 9.88 9.88 9.88 9.88 4.88 4.88 4.88 4.88 4.88 4.88 4.88 4.88 4.88 4.88 4.88 4.88 4.88 4.88 4.88 4.88 4.88 4.88 4.88 4.88 4.88 4.88 4.88 4.88 4.88 4.88 4.88 4.88 4.88 4.88 4.88 4.88 4.88 4.88 4.88 4.88 4.88 4.88 4.88 4.88 4.88 4.88 4.88 4.88 4.88 4.88 4.88 4.88 4.88 4.88 4.88 4.88 4.88 4.88 4.88 4.88 4.88 4.88 4.88 4.88 4.88 4.88 4.88 4.88 4.88 4.88 4.88 4.88 4.88 4.88 4.88 4.88 4.88 4.88 4.88 4.88 4.88 4.88 4.88 4.88 9.88 9.88 9.88 9.88 9.88 4.88 4.88 4.88 4.88 4.88 4.88 4.88 4.88 4.88 4.88 4.88 4.88 4.877213 4.609696 3.49356 0.243 4.174044 9.88 9.88 9.88 9.88 9.88 9.88 9.88 9.88 9.88 9.88 9.88 9.88 9.88 9.88 9.88 9.88 9.88 9.494287 6.301842 6.302127 1.302412 0.2881076 0.243 0.243 0.243 0.243 0.9402629 3.830548 4.88 4.88 4.88 4.88 4.88 4.88 4.88 4.88 4.88 4.88 4.88 4.88 4.88 4.88 4.88 4.88 4.88 4.88 4.88 4.98 4.98 4.98 5.189401 5.350443 5.452293 5.734745 5.924851 5.904111 5.73567 5.580723 5.641 5.615399 5.781059 6.153476 6.366832 6.404 6.404 6.404 6.399386 6.337435 6.135867 5.388876 5.35829 5.34158 5.333066 5.058211 4.88 4.88 4.88 4.88 4.88 4.88 4.88 4.88 4.88 4.88 4.88 4.88 4.88 4.88 4.88 4.88 4.88 4.88 9.88 9.88 9.88 9.88 9.88 9.88 9.88 9.88 9.88 9.88 9.88 9.88 9.88 9.88 9.88 9.88 9.88 9.88 9.88 9.88 9.88 9.88 9.88 9.88 9.88 9.88 9.88 9.88 9.88 9.88 9.88 9.88 9.88 9.88 9.88 9.88 9.88 9.88 9.88 9.88 4.88 4.88 4.664511 4.366844 3.491654 3.181 3.081 3.081 3.139248 3.721395 4.123353 4.457054 4.772351 -9999 -9999 -9999 -9999 -9999
-9999 -9999 -9999 -9999 -9999 -9999 -9999 -9999 -9999 -9999 -9999 -9999 -9999 -9999 -9999 -9999 -9999 -9999 -9999 -9999 -9999 -9999 -9999 -9999 -9999 -9999 -9999 -9999 -9999 -9999 -9999 -9999 -9999 -9999 -9999 -9999 -9999 -9999 4.767 4.767 4.767 4.767 4.69376 5.093237 5.269 5.269 5.269 5.269 5.269 5.269 5.269 5.269 5.269 5.269 5.269 5.269 5.269 5.269 5.269 5.269 10.269 10.269 10.269 10.269 10.269 10.269 10.269 10.269 10.269 10.269 10.269 10.269 10.269 10.269 10.269 10.269 10.269 10.269 10.269 10.269 10.269 10.369 11.01727 6.237 6.237 6.237 6.237 6.237 6.237 6.237 6.237 6.237 6.237 6.237 6.237 6.237 6.237 6.237 6.237 6.237 6.237 6.237 6.237 6.237 6.237 6.237 6.237 6.237 6.237 6.237 6.237 6.237 6.237 6.237 6.237 6.237 6.237 6.237 6.237 6.237 6.237 6.237 6.237 6.237 6.237 6.237 6.237 6.237 6.237 6.237 6.237 6.237 6.237 6.237 6.237 6.237 6.237 6.237 6.237 6.237 6.237 6.237 6.237 6.237 6.237 6.237 6.05172 5.269 5.269 5.269 5.269 5.269 5.269 5.269 5.269 5.269 5.269 5.269 5.269 5.269 5.269 5.269 5.269 5.269 5.269 5.269 5.251838 5.016835 4.668354 4.536777 4.530472 4.536681 4.590615 4.775204 4.781 4.78104 4.655313 4.371951 3.152534 3.181 3.081 3.081 3.081 3.081 3.081 3.081 3.081 3.13009 3.634947 4.127 4.127 4.127 4.027 4.027 4.027 4.039203 4.391879 4.98 4.88 4.88 4.88 4.88 4.88 4.88 4.88 4.88 4.88 9.88 9.88 9.88 9.88 9.88 9.88 9.88 9.88 9.88 9.88 9.88 9.88 9.88 9.88 9.88 9.88 4.88 4.88 4.88 4.88 4.88 4.88 4.88 4.88 4.88 4.88 4.88 4.88 4.88 4.88 4.88 4.88 4.88 4.88 4.88 4.88 4.88 4.88 4.88 4.88 4.88 4.88 4.88 4.88 4.88 4.88 4.88 4.88 4.88 4.88 4.88 4.88 4.88 4.88 4.88 4.88 4.88 4.88 4.88 4.88 4.88 4.88 4.88 4.88 4.88 4.88 4.88 4.88 4.88 4.88 4.88 4.88 4.88 4.88 4.88 4.88 4.88 4.88 4.88 4.88 4.88 4.88 4.88 4.88 4.88 4.88 4.88 4.88 4.88 4.88 4.88 4.88 4.88 4.88 4.88 4.88 4.88 4.88 9.88 9.88 9.88 9.88 9.88 9.88 4.88 4.88 4.88 4.88 4.88 4.88 4.88 4.88 4.88 4.88 4.88 4.88 4.88 2.945071 0.2519509 0.6146366 9.093596 9.88 9.88 9.88 9.88 9.88 9.88 9.88 9.88 9.88 9.88 9.88 9.88 9.88 8.964717 5.69753 5.697815 0.6503472 0.243 0.143 0.143 0.243 0.243 0.243 0.243 3.491735 4.421991 4.636695 4.88 4.88 4.88 4.88 4.88 4.88 4.88 4.88 4.88 4.88 4.88 4.88 4.88 4.88 4.88 4.88 4.88 4.98 4.98 5.390041 5.523452 5.626406 5.687813 5.947865 6.025846 6.301822 6.317582 6.224205 6.014656 5.925631 5.752141 5.704816 5.798011 6.232774 6.350825 6.404 6.404 6.404 6.357152 6.267247 5.935247 5.546999 5.414745 5.393523 5.373414 5.308652 5.06767 4.88 4.88 4.88 4.88 4.88 4.88 4.88 4.88 4.88 4.88 4.88 4.88 4.88 4.88 4.88 4.88 4.88 9.88 9.88 9.88 9.88 9.88 9.88 9.88 9.88 9.88 9.88 9.88 9.88 9.88 9.88 9.88 9.88 9.88 9.88 9.88 9.88 9.88 9.88 9.88 9.88 9.88 9.88 9.88 9.88 9.88 9.88 9.88 9.88 9.88 9.88 9.88 9.88 9.88 9.88 9.88 9.88 4.88 4.88 4.868153 4.681096 3.733491 3.470003 3.181 3.081 3.087286 3.192358 3.946947 4.228697 4.766323 -9999 -9999 -9999 -9999 -9999
-9999 -9999 -9999 -9999 -9999 -9999 -9999 -9999 -9999 -9999 -9999 -9999 -9999 -9999 -9999 -9999 -9999 -9999 -9999 -9999 -9999 -9999 -9999 -9999 -9999 -9999 -9999 -9999 -9999 -9999 -9999 -9999 -9999 -9999 -9999 -9999 -9999 -9999 -9999 4.767 4.767 4.767 4.767 4.667 5.032441 5.269 5.269 5.269 5.269 5.269 5.269 5.269 5.269 5.269 5.269 5.269 5.269 5.269 5.269 5.269 10.269 10.269 10.269 10.269 10.269 10.269 10.269 10.269 10.269 10.269 10.269 10.269 10.269 10.269 10.269 10.269 10.269 10.269 10.269 10.269 10.269 10.269 10.269 5.980533 6.237 6.237 6.237 6.237 6.237 6.237 6.237 6.237 6.237 6.237 6.237 6.237 6.237 6.237 6.237 6.237 6.237 6.237 6.237 6.237 6.237 6.237 6.237 6.237 6.237 6.237 6.237 6.237 6.237 6.237 6.237 6.237 6.237 6.237 6.237 6.237 6.237 6.237 6.237 6.237 6.237 6.237 6.237 6.237 6.237 6.237 6.237 6.237 6.237 6.237 6.237 6.237 6.237 6.237 6.237 6.237 6.237 6.237 6.237 6.237 6.237 6.237 6.055359 5.285196 5.269 5.269 5.269 5.269 5.269 5.269 5.269 5.269 5.269 5.269 5.269 5.269 5.269 5.269 5.269 5.269 5.269 5.269 5.269 5.269 5.067478 4.644906 4.527161 4.519981 4.534879 4.748824 4.772365 4.789358 4.843072 4.650546 4.392599 3.197262 3.185226 3.081 3.081 3.081 3.081 3.081 3.081 3.181 3.522365 4.125004 4.130571 4.308976 4.604238 4.833937 4.88 4.98 4.98 4.88 4.88 4.88 4.88 4.88 4.88 4.88 4.88 4.88 4.88 9.88 9.88 9.88 9.88 9.88 9.88 9.88 9.88 9.88 9.88 9.88 9.88 9.88 4.88 4.88 4.88 4.88 4.88 4.88 4.88 4.88 4.88 4.88 4.88 4.88 4.88 4.88 4.88 4.88 4.88 4.88 4.88 4.88 4.88 4.88 4.88 4.88 4.88 4.88 4.88 4.88 4.88 4.88 4.88 4.88 4.88 4.88 4.88 4.88 4.88 4.88 4.88 4.88 4.88 4.88 4.88 4.88 4.88 4.88 4.88 4.88 4.88 4.88 4.88 4.88 4.88 4.88 4.88 4.88 4.88 4.88 4.88 4.88 4.88 4.88 4.88 4.88 4.88 4.88 4.88 4.88 4.88 4.88 4.88 4.88 4.88 4.88 4.88 4.88 4.88 4.88 4.88 4.88 4.88 4.88 4.88 4.88 4.88 9.88 9.88 9.88 9.88 9.88 9.88 4.88 4.88 4.88 4.88 4.88 4.88 4.88 4.88 4.88 4.88 4.88 4.88 4.88 4.88 0.4846896 0.143 3.89863 9.88 9.88 9.88 9.88 9.88 9.88 9.88 9.88 9.857254 9.829362 9.829647 5.243 5.143 0.143 0.243 0.243 0.243 0.2462224 0.1907846 0.1904992 0.2902138 4.490662 4.88 4.88 4.88 4.88 4.88 4.88 4.88 4.88 4.88 4.88 4.88 4.88 4.88 4.88 4.88 4.88 4.88 4.88 4.880579 4.884958 5.006466 5.375287 5.591646 5.505496 5.718612 5.936459 6.028243 6.245073 6.557879 6.649786 6.890942 6.873181 6.757561 6.369542 6.01053 5.803527 5.751058 5.712517 5.9104 6.210015 6.29362 6.367818 6.334993 6.092723 5.907428 5.611502 5.479767 5.449901 5.525852 5.395892 5.360546 5.082218 4.880707 4.88 4.88 4.88 4.88 4.88 4.88 4.88 4.88 4.88 4.88 4.88 4.88 4.88 4.88 4.88 4.88 9.88 9.88 9.88 9.88 9.88 9.88 9.88 9.88 9.88 9.88 9.88 9.88 9.88 9.88 9.88 9.88 9.88 9.88 4.88 4.88 4.88 9.88 9.88 9.88 9.88 9.88 9.88 9.88 9.88 9.88 9.88 9.88 9.88 9.88 9.88 9.88 9.88 9.88 9.88 9.88 4.88 4.88 4.88 4.682589 4.373781 3.709524 3.181 3.081 3.081 3.123124 3.741989 4.016175 4.610896 -9999 -9999 -9999 -9999 -9999
-9999 -9999 -9999 -9999 -9999 -9999 -9999 -9999 -9999 -9999 -9999 -9999 -9999 -9999 -9999 -9999 -9999 -9999 -9999 -9999 -9999 -9999 -9999 -9999 -9999 -9999 -9999 -9999 -9999 -9999 -9999 -9999 -9999 -9999 -9999 -9999 -9999 -9999 -9999 4.767 4.767 4.767 4.767 4.767 5.010906 5.222706 5.269 5.269 5.269 5.269 5.269 5.269 5.269 5.269 5.269 5.269 5.269 5.269 5.269 5.269 5.269 10.269 10.269 10.269 10.269 10.269 10.269 10.269 10.269 10.269 10.269 10.269 10.269 10.269 10.269 10.269 10.269 10.269 10.269 10.269 10.269 10.269 10.369 10.98055 6.237 6.237 6.237 6.237 6.237 6.237 6.237 6.237 6.237 6.237 6.237 6.237 6.237 6.237 6.237 6.237 6.237 6.237 6.237 6.237 6.237 6.237 6.237 6.237 6.237 6.237 6.237 6.237 6.237 6.237 6.237 6.237 6.237 6.237 6.237 6.237 6.237 6.237 6.237 6.237 6.237 6.237 6.237 6.237 6.237 6.237 6.237 6.237 6.237 6.237 6.237 6.237 6.237 6.237 6.237 6.237 6.237 6.237 6.237 6.237 6.237 6.237 6.237 6.088412 5.269 5.269 5.269 5.269 5.269 5.269 5.269 5.269 5.269 5.269 5.269 5.269 5.269 5.269 5.269 5.269 5.269 5.269 5.269 5.269 5.269 5.090491 4.629902 4.519001 4.514131 4.525005 4.732948 4.770868 4.84528 4.85048 4.667542 4.369862 3.520839 3.113891 3.081 3.081 3.081 3.081 3.081 3.081 3.181 4.070348 4.44758 4.607988 4.835475 4.88 4.88 4.88 4.88 4.88 4.88 4.88 4.88 4.88 4.88 4.88 4.88 4.88 4.88 4.88 9.88 9.88 9.88 9.88 9.88 9.88 9.88 9.88 9.88 9.88 9.88 4.88 4.88 4.88 4.88 4.88 4.88 4.88 4.88 4.88 4.88 4.88 4.88 4.88 4.88 4.88 4.88 4.88 4.88 4.88 4.88 4.88 4.88 4.88 4.88 4.88 4.88 4.88 4.88 4.88 4.88 4.88 4.88 4.88 4.88 4.88 4.88 4.88 4.88 4.88 4.88 4.88 4.88 4.88 4.88 4.88 4.88 4.88 4.88 4.88 4.88 4.88 4.88 4.88 4.88 4.88 4.88 4.88 4.88 4.88 4.88 4.88 4.88 4.88 4.88 4.88 4.88 4.88 4.88 4.88 4.88 4.88 4.88 4.88 4.88 4.88 4.88 4.88 4.88 4.88 4.88 4.88 4.88 4.88 4.88 4.88 4.88 4.88 9.88 9.88 9.88 9.88 9.88 4.88 4.88 4.88 4.88 4.88 4.88 4.88 4.88 4.88 4.88 4.88 4.88 4.88 4.88 0.5208964 0.1533042 3.559903 9.741113 9.88 9.88 9.88 9.88 9.88 9.589939 9.425335 7.501708 5.243 5.243 0.243 0.143 0.143 0.4429814 0.8950965 0.8948111 1.068692 4.88 4.88 4.88 4.88 4.88 4.88 4.88 4.88 4.88 4.88 4.88 4.88 4.88 4.88 4.88 4.88 4.88 4.88 4.88 4.88 5.038798 5.05504 5.030558 5.490491 5.609314 5.720607 5.943238 6.108157 6.287731 6.516422 6.739114 6.895524 6.898103 6.979749 7.02 6.973877 6.86758 6.603888 6.263284 5.952069 5.794752 5.771753 5.749322 5.769639 5.980299 5.938182 5.928027 5.682367 5.652272 5.521397 5.491683 5.663338 6.423008 6.404 5.543346 5.366783 5.093259 4.88 4.88 4.88 4.88 4.88 4.88 4.88 4.88 4.88 4.88 4.88 4.88 4.88 4.88 4.88 4.88 9.88 9.88 9.88 9.88 9.88 9.88 9.88 9.88 9.88 9.88 9.88 9.88 9.88 9.88 9.88 4.88 4.88 4.88 4.88 4.88 4.88 9.88 9.88 9.88 9.88 9.88 9.88 9.88 9.88 9.88 9.88 9.88 9.88 9.88 9.88 9.88 9.88 9.88 9.88 9.88 9.88 4.88 4.88 4.88 4.679785 3.772165 3.127282 3.081 3.081 3.112575 3.752549 3.969024 4.402914 -9999 -9999 -9999 -9999 -9999
-9999 -9999 -9999 -9999 -9999 -9999 -9999 -9999 -9999 -9999 -9999 -9999 -9999 -9999 -9999 -9999 -9999 -9999 -9999 -9999 -9999 -9999 -9999 -9999 -9999 -9999 -9999 -9999 -9999 -9999 -9999 -9999 -9999 -9999 -9999 -9999 -9999 -9999 -9999 -9999 4.767 4.767 4.767 4.767 4.667 5.013391 5.269 5.269 5.269 5.269 5.269 5.269 5.269 5.269 5.269 5.269 5.269 5.269 5.269 5.269 5.269 5.269 10.269 10.269 10.269 10.269 10.269 10.269 10.269 10.269 10.269 10.269 10.269 10.269 10.269 10.269 10.269 10.269 10.269 10.269 10.269 10.269 10.369 10.98057 6.237 6.237 6.237 6.237 6.237 6.237 6.237 6.237 6.237 6.237 6.237 6.237 6.237 6.237 6.237 6.237 6.237 6.237 6.237 6.237 6.237 6.237 6.237 6.237 6.237 6.237 6.237 6.237 6.237 6.237 6.237 6.237 6.237 6.237 6.237 6.237 6.237 6.237 6.237 6.237 6.237 6.237 6.237 6.237 6.237 6.237 6.237 6.237 6.237 6.237 6.237 6.237 6.237 6.237 6.237 6.237 6.237 6.237 6.237 6.237 6.237 6.237 6.237 6.088383 5.269 5.269 5.269 5.269 5.269 5.269 5.269 5.269 5.269 5.269 5.269 5.269 5.269 5.269 5.269 5.269 5.269 5.269 5.269 5.269 5.269 5.237002 4.687747 4.642581 4.529532 4.525159 4.53749 4.71718 4.831293 4.85146 4.859463 4.663508 4.396646 3.364181 3.181 3.081 3.081 3.081 3.081 3.081 3.081 3.507759 4.405354 4.763472 4.804007 4.868957 4.88 4.88 4.88 4.88 4.88 4.88 4.88 4.88 4.88 4.88 4.88 4.88 4.88 4.88 9.88 9.88 9.88 9.88 9.88 9.88 9.88 9.88 9.88 4.88 4.88 4.88 4.88 4.88 4.88 4.88 4.88 4.88 4.88 4.88 4.88 4.88 4.88 4.88 4.88 4.88 4.88 4.88 4.88 4.88 4.88 4.88 4.88 4.88 4.88 4.88 9.88 4.88 4.88 4.88 4.88 4.88 4.88 4.88 4.88 4.88 4.88 4.88 4.88 4.88 4.88 4.88 4.88 4.88 4.88 4.88 4.88 4.88 4.88 4.88 4.88 4.88 4.88 4.88 4.88 4.88 4.88 4.88 4.88 4.88 4.88 4.88 4.88 4.88 4.88 4.88 4.88 4.88 4.88 4.88 4.88 4.88 4.88 4.88 4.88 4.88 4.88 4.88 4.88 4.88 4.88 4.88 4.88 4.88 4.88 4.88 4.88 4.88 9.88 9.88 9.88 9.88 9.88 9.88 4.88 4.88 4.88 4.88 4.88 4.88 4.88 4.88 4.88 4.88 4.88 4.88 4.88 1.300992 0.3091203 0.143 8.823221 9.98 9.98 9.205654 8.821047 8.82132 7.05089 5.243 5.243 0.243 0.243 0.4546864 1.399408 1.399123 2.047284 4.88 4.88 4.88 4.88 4.88 4.88 4.88 4.88 4.88 4.88 4.88 4.88 4.88 4.88 4.88 4.88 4.88 4.88 4.88 4.88 4.88 5.01671 5.007864 5.456901 5.692295 5.814164 5.812771 5.879 5.879739 6.149694 6.484264 6.731376 6.73929 6.772587 6.99312 7.02 7.02 7.02 7.02 6.930809 6.674945 6.257548 5.929131 5.840498 5.808282 5.776286 5.744231 5.71353 5.683706 5.65379 5.593519 5.561974 5.530266 5.600759 6.350843 6.404 6.404 6.404 5.671001 5.096528 4.88 4.88 4.88 4.88 4.88 4.88 4.88 4.88 4.88 4.88 4.88 4.88 4.88 4.88 4.88 4.88 4.88 9.88 9.88 9.88 9.88 9.88 9.88 9.88 9.88 9.88 9.88 9.88 9.88 4.88 4.88 4.88 4.88 4.88 4.88 4.88 4.88 4.88 9.88 9.88 9.88 9.88 9.88 9.88 9.88 9.88 9.88 9.88 9.88 9.88 9.88 9.88 9.88 9.88 9.88 9.88 9.88 4.88 4.88 4.88 4.636658 4.162941 3.45589 3.181 3.081 3.081 3.194133 3.797764 4.086244 4.320671 -9999 -9999 -9999 -9999
-9999 -9999 -9999 -9999 -9999 -9999 -9999 -9999 -9999 -9999 -9999 -9999 -9999 -9999 -9999 -9999 -9999 -9999 -9999 -9999 -9999 -9999 -9999 -9999 -9999 -9999 -9999 -9999 -9999 -9999 -9999 -9999 -9999 -9999 -9999 -9999 -9999 -9999 -9999 -9999 4.767 4.767 4.767 4.767 4.767 4.862549 5.238873 5.269 5.269 5.269 5.269 5.269 5.269 5.269 5.269 5.269 5.269 5.269 5.269 5.269 5.269 5.269 10.269 10.269 10.269 10.269 10.269 10.269 10.269 10.269 10.269 10.269 10.269 10.269 10.269 10.269 10.269 10.269 10.269 10.269 10.269 10.269 10.369 10.73376 6.235314 6.237 6.237 6.237 6.237 6.237 6.237 6.237 6.237 6.237 6.237 6.237 6.237 6.237 6.237 6.237 6.237 6.237 6.237 6.237 6.237 6.237 6.237 6.237 6.237 6.237 6.237 6.237 6.237 6.237 6.237 6.237 6.237 6.237 6.237 6.237 6.237 6.237 6.237 6.237 6.237 6.237 6.237 6.237 6.237 6.237 6.237 6.237 6.237 6.237 6.237 6.237 6.237 6.237 6.237 6.237 6.237 6.237 6.237 6.237 6.237 6.237 6.237 6.239709 5.269 5.269 5.269 5.269 5.269 5.269 5.269 5.269 5.269 5.269 5.269 5.269 5.269 5.269 5.269 5.269 5.269 5.269 5.269 5.269 5.269 5.269 5.282858 4.810036 4.612351 4.548471 4.537524 4.541727 4.73062 4.841444 4.863111 4.869081 4.693583 3.737595 3.121361 3.181 3.081 3.081 3.081 3.081 3.081 3.181 3.513062 4.024217 4.337078 4.699225 4.803827 4.88 4.88 4.88 4.88 4.88 4.88 4.88 4.88 4.88 4.88 4.88 4.88 4.88 4.88 9.88 9.88 9.88 9.88 9.88 9.88 9.88 4.88 4.88 4.88 4.88 4.88 4.88 4.88 4.88 4.88 4.88 4.88 4.88 4.88 4.88 4.88 4.88 4.88 4.88 4.88 4.88 4.88 4.88 4.88 4.88 4.88 4.88 4.88 4.88 9.88 9.88 4.88 4.88 4.88 4.88 4.88 4.88 4.88 4.88 4.88 4.88 4.88 4.88 4.88 4.88 4.88 4.88 4.88 4.88 4.88 4.88 4.88 4.88 4.88 4.88 4.88 4.88 4.88 4.88 4.88 4.88 4.88 4.88 4.88 4.88 4.88 4.88 4.88 4.88 4.88 4.88 4.88 4.88 4.88 4.88 4.88 4.88 4.88 4.88 4.88 4.88 4.88 4.88 4.88 4.88 4.88 4.88 4.88 4.88 4.88 4.88 9.88 9.88 9.88 9.88 9.88 9.88 4.88 4.88 4.88 4.88 4.88 4.88 4.88 4.88 4.88 4.88 4.88 4.88 4.88 0.8713477 0.143 0.143 2.649975 8.416776 8.317047 6.359872 0.143 0.243 5.243 0.243 0.243 0.8813357 1.80372 2.710926 4.88 4.88 4.88 4.88 4.88 4.88 4.88 4.88 4.88 4.88 4.88 4.88 4.88 4.88 4.88 4.88 4.88 4.88 4.88 4.88 4.88 5.04388 5.031394 5.040169 5.279075 5.491935 5.857534 5.854853 5.879 5.879 5.879 5.879285 5.943658 6.196209 6.56799 6.702513 6.865577 6.98535 7.017469 7.02 7.02 7.011782 6.908142 6.642437 6.250049 5.94352 5.843703 5.812157 5.780517 5.748996 5.717575 5.687318 5.657985 5.60008 5.569916 5.539448 5.608979 6.064849 6.374571 6.404 6.404 5.581677 5.115132 4.923934 4.88 4.88 4.88 4.88 4.88 4.88 4.88 4.88 4.88 4.88 4.88 4.88 4.88 4.88 4.88 4.88 9.88 9.88 9.88 9.88 9.88 9.88 9.88 9.88 9.88 4.88 4.88 4.88 4.88 4.88 4.88 4.88 4.88 4.88 4.88 4.88 4.88 9.88 9.88 9.88 9.88 9.88 9.88 9.88 9.88 9.88 9.88 9.88 9.88 9.88 9.88 9.88 9.88 9.88 9.88 9.88 4.88 4.88 4.88 4.697778 4.323819 3.71066 3.181 3.081 3.081 3.191741 3.76414 3.894318 4.080113 -9999 -9999 -9999 -9999
-9999 -9999 -9999 -9999 -9999 -9999 -9999 -9999 -9999 -9999 -9999 -9999 -9999 -9999 -9999 -9999 -9999 -9999 -9999 -9999 -9999 -9999 -9999 -9999 -9999 -9999 -9999 -9999 -9999 -9999 -9999 -9999 -9999 -9999 -9999 -9999 -9999 -9999 -9999 -9999 4.767 4.767 4.767 4.767 4.767 4.767 5.00371 5.297961 5.269 5.269 5.269 5.269 5.269 5.269 5.269 5.269 5.269 5.269 5.269 5.269 5.269 5.269 5.269 10.269 10.269 10.269 10.269 10.269 10.269 10.269 10.269 10.269 10.269 10.269 10.269 10.269 10.269 10.269 10.269 10.269 10.269 10.269 10.269 10.269 5.943849 6.237 6.237 6.237 6.237 6.237 6.237 6.237 6.237 6.237 6.237 6.237 6.237 6.237 6.237 6.237 6.237 6.237 6.237 6.237 6.237 6.237 6.237 6.237 6.237 6.237 6.237 6.237 6.237 6.237 6.237 6.237 6.237 6.237 6.237 6.237 6.237 6.237 6.237 6.237 6.237 6.237 6.237 6.237 6.237 6.237 6.237 6.237 6.237 6.237 6.237 6.237 6.237 6.237 6.237 6.237 6.237 6.237 6.237 6.237 6.237 6.237 6.237 6.237 5.369 5.269 5.269 5.269 5.269 5.269 5.269 5.269 5.269 5.269 5.269 5.269 5.269 5.269 5.269 5.269 5.269 5.269 5.269 5.269 5.269 5.269 5.269 5.216743 5.013866 4.625705 4.544862 4.546047 4.601521 4.73578 4.853566 4.873363 4.890831 4.649935 4.103339 3.485794 3.141489 3.181 3.081 3.081 3.081 3.081 3.081 3.181 3.128749 3.773867 4.318222 4.674932 4.88 4.88 4.88 4.88 4.88 4.88 4.88 4.88 4.88 4.88 4.88 4.88 4.88 4.88 9.88 9.88 9.88 9.88 9.88 9.88 4.88 4.88 4.88 4.88 4.88 4.88 4.88 4.88 4.88 4.88 4.88 4.88 4.88 4.88 4.88 4.88 4.88 4.88 4.88 4.88 4.88 4.88 4.88 4.88 4.88 4.88 9.88 9.88 9.88 9.88 9.88 9.88 4.88 4.88 4.88 4.88 4.88 4.88 4.88 4.88 4.88 4.88 4.88 4.88 4.88 4.88 4.88 4.88 4.88 4.88 4.88 4.88 4.88 4.88 4.88 4.88 4.88 4.88 4.88 4.88 4.88 4.88 4.88 4.88 4.88 4.88 4.88 4.88 4.88 4.88 4.88 4.88 4.88 4.88 4.88 4.88 4.88 4.88 4.88 4.88 4.88 4.88 4.88 4.88 4.88 4.88 4.88 4.88 9.88 9.88 9.88 9.88 9.88 9.88 9.88 9.88 4.88 4.88 4.88 4.88 4.88 4.88 4.88 4.88 4.88 4.88 4.88 4.88 4.88 2.558744 0.6015111 0.243 0.143 0.143 0.143 0.143 0.143 0.243 1.322927 2.208032 2.207747 3.359619 4.88 4.88 4.88 4.88 4.88 4.88 4.88 4.88 4.88 4.88 4.88 4.88 4.88 4.88 4.88 4.88 4.88 4.88 4.88 4.88 4.88 5.07985 5.080527 5.286616 5.232 5.256455 5.545498 5.579222 5.761992 5.795983 5.804761 5.82338 5.831527 5.849859 5.969142 6.191893 6.239176 6.557598 6.694099 6.882001 6.967818 7.002324 6.994584 6.943876 6.801086 6.524645 6.262961 5.910369 5.841616 5.811905 5.781895 5.751926 5.721878 5.592175 5.723998 5.93 5.679132 5.551233 5.523333 5.495432 6.316061 6.404 6.404 5.947801 5.566583 4.91397 4.88 4.88 4.88 4.88 4.88 4.88 4.88 4.88 4.88 4.88 4.88 4.88 4.88 4.88 4.88 4.88 9.88 9.88 9.88 9.88 9.88 9.88 4.88 4.88 4.88 4.88 4.88 4.88 4.88 4.88 4.88 4.88 4.88 4.88 4.88 4.88 4.88 9.88 9.88 9.88 9.88 9.88 9.88 9.88 9.88 9.88 9.88 9.88 9.88 9.88 9.88 9.88 9.88 9.88 9.88 9.88 4.88 4.88 4.88 4.826386 4.655172 4.110382 3.303082 3.081 3.081 3.086467 3.476278 3.847768 4.093657 -9999 -9999 -9999 -9999
-9999 -9999 -9999 -9999 -9999 -9999 -9999 -9999 -9999 -9999 -9999 -9999 -9999 -9999 -9999 -9999 -9999 -9999 -9999 -9999 -9999 -9999 -9999 -9999 -9999 -9999 -9999 -9999 -9999 -9999 -9999 -9999 -9999 -9999 -9999 -9999 -9999 -9999 -9999 -9999 -9999 4.767 4.767 4.767 4.767 4.767 4.831413 5.074436 5.269 5.269 5.269 5.269 5.269 5.269 5.269 5.269 5.269 5.269 5.269 5.269 5.269 5.269 5.269 10.269 10.269 10.269 10.269 10.269 10.269 10.269 10.269 10.269 10.269 10.269 10.269 10.269 10.269 10.269 10.269 10.269 10.269 10.269 10.269 10.369 10.94387 6.237 6.237 6.237 6.237 6.237 6.237 6.237 6.237 6.237 6.237 6.237 6.237 6.237 6.237 6.237 6.237 6.237 6.237 6.237 6.237 6.237 6.237 6.237 6.237 6.237 6.237 6.237 6.237 6.237 6.237 6.237 6.237 6.237 6.237 6.237 6.237 6.237 6.237 6.237 6.237 6.237 6.237 6.237 6.237 6.237 6.237 6.237 6.237 6.237 6.237 6.237 6.237 6.237 6.237 6.237 6.237 6.237 6.237 6.237 6.237 6.237 6.237 6.237 5.269 5.269 5.269 5.269 5.269 5.269 5.269 5.269 5.269 5.269 5.269 5.269 5.269 5.269 5.269 5.269 5.269 5.269 5.269 5.269 5.269 5.269 5.269 5.269 5.236658 5.080689 4.608189 4.549978 4.562324 4.596099 4.722929 4.855101 4.928802 4.951808 4.810342 4.604435 3.925677 3.315104 3.181 3.081 3.081 3.081 3.081 3.081 3.081 3.183693 3.739773 4.39661 4.643708 4.88 4.88 4.88 4.88 4.88 4.88 4.88 4.88 4.88 4.88 4.88 4.88 4.88 9.88 9.88 9.88 9.88 9.88 9.88 4.88 4.88 4.88 4.88 4.88 4.88 4.88 4.88 4.88 4.88 4.88 4.88 4.88 4.88 4.88 4.88 4.88 4.88 4.88 4.88 4.88 4.88 4.88 4.88 9.88 9.88 9.88 9.88 9.88 9.88 9.88 9.88 4.88 4.88 4.88 4.88 4.88 4.88 4.88 4.88 4.88 4.88 4.88 4.88 4.88 4.88 4.88 4.88 4.88 4.88 4.88 4.88 4.88 4.88 4.88 4.88 4.88 4.88 4.88 4.88 4.88 4.88 4.88 4.88 4.88 4.88 4.88 4.88 4.88 4.88 4.88 4.88 4.88 4.88 4.88 4.88 4.88 4.88 4.88 4.88 4.88 4.88 4.88 4.88 4.88 9.88 9.88 9.88 9.88 9.88 9.88 9.88 9.88 9.88 9.88 9.88 4.88 4.88 4.88 4.88 4.88 4.88 4.88 4.88 4.88 4.88 4.88 4.88 4.88 4.88 1.046758 0.243 0.143 0.143 0.143 1.879436 2.81232 2.912048 3.893365 4.88 4.88 4.88 4.88 4.88 4.88 4.88 4.88 4.88 4.88 4.88 4.88 4.88 4.88 4.88 4.88 4.88 4.88 4.88 4.88 4.88 4.88 4.88 4.88 5.20507 5.232 5.332 5.332 5.352048 5.432758 5.643669 5.654224 5.656318 5.640964 5.648812 5.65423 5.588808 5.540712 5.717553 5.947011 6.047358 6.334003 6.602796 6.878345 6.854488 6.834462 6.846275 6.570201 6.298633 6.018431 5.867017 5.835303 5.807934 5.780597 5.753295 5.933531 6.263195 6.305549 6.513772 6.047706 5.561813 5.534971 5.507612 5.959645 6.335881 6.404 6.404 5.520916 5.19791 5.061719 4.88 4.88 4.88 4.88 4.88 4.88 4.88 4.88 4.88 4.88 4.88 4.88 4.88 4.88 4.88 4.88 9.88 4.88 4.88 4.88 4.88 4.88 4.88 4.88 4.88 4.88 4.88 4.88 4.88 4.88 4.88 4.88 4.88 4.88 4.88 4.88 4.88 9.88 9.88 9.88 9.88 9.88 9.88 9.88 9.88 9.88 9.88 9.88 9.88 9.88 9.88 4.88 4.88 4.88 4.88 4.88 4.88 4.88 4.855542 4.654778 4.189758 3.591302 3.181 3.081 3.081 3.181 3.784086 4.018909 -9999 -9999 -9999 -9999
-9999 -9999 -9999 -9999 -9999 -9999 -9999 -9999 -9999 -9999 -9999 -9999 -9999 -9999 -9999 -9999 -9999 -9999 -9999 -9999 -9999 -9999 -9999 -9999 -9999 -9999 -9999 -9999 -9999 -9999 -9999 -9999 -9999 -9999 -9999 -9999 -9999 -9999 -9999 -9999 -9999 -9999 4.767 4.767 4.767 4.767 4.767 4.899686 5.261969 5.269 5.269 5.269 5.269 5.269 5.269 5.269 5.269 5.269 5.269 5.269 5.269 5.269 5.269 5.269 10.269 10.269 10.269 10.269 10.269 10.269 10.269 10.269 10.269 10.269 10.269 10.269 10.269 10.269 10.269 10.269 10.269 10.269 10.269 10.369 10.94388 6.237 6.237 6.237 6.237 6.237 6.237 6.237 6.237 6.237 6.237 6.237 6.237 6.237 6.237 6.237 6.237 6.237 6.237 6.237 6.237 6.237 6.237 6.237 6.237 6.237 6.237 6.237 6.237 6.237 6.237 6.237 6.237 6.237 6.237 6.237 6.237 6.237 6.237 6.237 6.237 6.237 6.237 6.237 6.237 6.237 6.237 6.237 6.237 6.237 6.237 6.237 6.237 6.237 6.237 6.237 6.237 6.237 6.237 6.237 6.237 6.237 6.237 6.237 5.968181 5.369 5.269 5.269 5.269 5.269 5.269 5.269 5.269 5.269 5.269 5.269 5.269 5.269 5.269 5.269 5.269 5.269 5.269 5.269 5.269 5.269 5.269 5.269 5.269 5.221773 4.641559 4.621817 4.565738 4.566 4.613936 4.741049 4.875799 4.942554 4.955 4.885934 4.653211 4.112755 3.811813 3.340161 3.181 3.081 3.081 3.081 3.081 3.081 3.139564 3.589836 4.191774 4.611727 4.88 4.88 4.88 4.88 4.88 4.88 4.88 4.88 4.88 4.88 4.88 4.88 4.88 9.88 9.88 9.88 9.88 9.88 9.88 4.88 4.88 4.88 4.88 4.88 4.88 4.88 4.88 4.88 4.88 4.88 4.88 4.88 4.88 4.88 4.88 4.88 4.88 4.88 4.88 4.88 4.88 4.88 9.88 9.88 9.88 9.88 9.88 9.88 9.88 9.88 9.88 4.88 4.88 4.88 4.88 4.88 4.88 4.88 4.88 4.88 4.88 4.88 4.88 4.88 4.88 4.88 4.88 4.88 4.88 4.88 4.88 4.88 4.88 4.88 4.88 4.88 4.88 4.88 4.88 4.88 4.88 4.88 4.88 4.88 4.88 4.88 4.88 4.88 4.88 4.88 4.88 4.88 4.88 4.88 4.88 4.88 4.88 4.88 4.88 4.88 9.88 9.88 9.88 9.88 9.88 9.88 9.88 9.88 9.88 9.88 9.88 9.88 9.88 9.88 4.88 4.88 4.88 4.88 4.88 4.88 4.88 4.88 4.88 4.88 4.88 4.88 4.88 4.88 3.488155 0.892354 2.550873 3.316592 3.31632 4.412153 4.88 4.88 4.88 4.88 4.88 4.88 4.88 4.88 4.88 4.88 4.88 4.88 4.88 4.88 4.88 4.88 4.88 4.88 4.88 4.88 4.88 4.88 4.88 4.88 4.88 4.88 4.88 5.205103 5.232 5.332 5.332 5.247602 5.288156 5.326799 5.077156 5.072402 5.057509 5.050761 5.049039 4.958935 4.979254 5.109056 5.53583 5.655732 5.982744 6.237158 6.359391 6.577766 6.574518 6.383921 6.216049 6.020433 5.892269 5.84441 5.821455 5.797934 5.77153 5.744825 5.944591 6.653228 6.880236 6.84335 6.5749 5.557935 5.531328 5.504399 5.478057 5.732481 6.526901 6.472012 5.56407 5.343168 4.927539 4.88 4.88 4.88 4.88 4.88 4.88 4.88 4.88 4.88 4.88 4.88 4.88 4.88 4.88 4.88 4.88 4.88 4.88 4.88 4.88 4.88 4.88 4.88 4.88 4.88 4.88 4.88 4.88 4.88 4.88 4.88 4.88 4.88 4.88 4.88 4.88 4.88 9.88 9.88 9.88 9.88 9.88 9.88 9.88 9.88 9.88 9.88 9.88 4.88 4.88 4.88 4.88 4.88 4.88 4.88 4.88 4.88 4.88 4.836636 4.688933 4.16124 3.548226 3.181 3.081 3.081 3.181 3.769404 3.850797 -9999 -9999 -9999 -9999
-9999 -9999 -9999 -9999 -9999 -9999 -9999 -9999 -9999 -9999 -9999 -9999 -9999 -9999 -9999 -9999 -9999 -9999 -9999 -9999 -9999 -9999 -9999 -9999 -9999 -9999 -9999 -9999 -9999 -9999 -9999 -9999 -9999 -9999 -9999 -9999 -9999 -9999 -9999 -9999 -9999 -9999 4.767 4.767 4.767 4.767 4.767 4.698567 5.076559 5.269 5.269 5.269 5.269 5.269 5.269 5.269 5.269 5.269 5.269 5.269 5.269 5.269 5.269 5.269 10.269 10.269 10.269 10.269 10.269 10.269 10.269 10.269 10.269 10.269 10.269 10.269 10.269 10.269 10.269 10.269 10.269 10.269 10.269 10.269 10.4167 5.979344 6.237 6.237 6.237 6.237 6.237 6.237 6.237 6.237 6.237 6.237 6.237 6.237 6.237 6.237 6.237 6.237 6.237 6.237 6.237 6.237 6.237 6.237 6.237 6.237 6.237 6.237 6.237 6.237 6.237 6.237 6.237 6.237 6.237 6.237 6.237 6.237 6.237 6.237 6.237 6.237 6.237 6.237 6.237 6.237 6.237 6.237 6.237 6.237 6.237 6.237 6.237 6.237 6.237 6.237 6.237 6.237 6.237 6.237 6.237 6.237 6.237 6.237 11.26173 10.369 5.269 5.269 5.269 5.269 5.269 5.269 5.269 5.269 5.269 5.269 5.269 5.269 5.269 5.269 5.269 5.269 5.269 5.269 5.269 5.269 5.269 5.269 5.269 5.259457 5.147118 4.845109 4.571952 4.577928 4.606647 4.645956 4.72833 4.903208 4.955 4.832882 4.744337 4.654144 4.604976 4.038589 3.506004 3.081 3.081 3.081 3.081 3.081 3.081 3.113467 3.368388 4.166116 4.638317 4.890591 4.880111 4.88 4.88 4.88 4.88 4.88 4.88 4.88 4.88 4.88 4.88 4.88 9.88 9.88 9.88 9.88 9.88 9.88 4.88 4.88 4.88 4.88 4.88 4.88 4.88 4.88 4.88 4.88 4.88 4.88 4.88 4.88 4.88 4.88 4.88 4.88 4.88 4.88 4.88 4.88 4.88 9.88 9.88 9.88 9.88 9.88 9.88 9.88 9.88 9.88 4.88 4.88 4.88 4.88 4.88 4.88 4.88 4.88 4.88 4.88 4.88 4.88 4.88 4.88 4.88 4.88 4.88 4.88 4.88 4.88 4.88 4.88 4.88 4.88 4.88 4.88 4.88 4.88 4.88 4.88 4.88 4.88 4.88 4.88 4.88 4.88 4.88 4.88 4.88 4.88 4.88 9.88 9.88 9.88 9.88 9.88 9.88 9.88 9.88 9.88 9.88 9.88 9.88 9.88 9.88 9.88 9.88 9.88 9.88 9.88 9.88 9.88 4.88 4.88 4.88 4.88 4.88 4.88 4.88 4.88 4.88 4.88 4.88 4.88 4.88 4.88 4.88 4.1443 4.716005 4.88 4.88 4.88 4.88 4.88 4.88 4.88 4.88 4.88 4.88 4.88 4.88 4.88 4.88 4.88 4.88 4.88 4.88 4.88 4.88 4.88 4.88 4.88 4.88 4.88 4.88 4.88 4.88 4.88 4.88 4.93191 5.084247 5.084276 5.084305 5.087611 5.09262 5.060219 4.88 4.88 4.88 4.88 4.88 4.88 4.88 4.88 4.978821 4.934645 5.486166 5.751536 5.90727 6.021122 6.042542 5.97853 5.917603 5.871636 5.839622 5.820738 5.801181 5.779959 5.759564 5.902376 6.527659 6.890635 6.815 6.793805 6.530405 5.546075 5.519138 5.492924 5.466243 5.43933 6.550147 6.754642 6.406678 5.504465 5.360631 5.00538 4.88 4.88 4.88 4.88 4.88 4.88 4.88 4.88 4.88 4.88 4.88 4.88 4.88 4.88 4.88 4.88 4.88 4.88 4.88 4.88 4.88 4.88 4.88 4.88 4.88 4.88 4.88 4.88 4.88 4.88 4.88 4.88 4.88 4.88 4.88 4.88 4.88 9.88 9.88 9.88 9.88 9.88 4.88 4.88 4.88 4.88 4.88 4.88 4.88 4.88 4.88 4.88 4.88 4.88 4.88 4.88 4.878486 4.685891 4.316019 3.959598 3.590256 3.181 3.081 3.081 3.181 3.760874 3.825374 4.324291 -9999 -9999 -9999
-9999 -9999 -9999 -9999 -9999 -9999 -9999 -9999 -9999 -9999 -9999 -9999 -9999 -9999 -9999 -9999 -9999 -9999 -9999 -9999 -9999 -9999 -9999 -9999 -9999 -9999 -9999 -9999 -9999 -9999 -9999 -9999 -9999 -9999 -9999 -9999 -9999 -9999 -9999 -9999 -9999 -9999 -9999 4.767 4.767 4.767 4.767 4.767 4.676802 4.884618 5.269 5.269 5.269 5.269 5.269 5.269 5.269 5.269 5.269 5.269 5.269 5.269 5.269 5.269 5.269 10.269 10.269 10.269 10.269 10.269 10.269 10.269 10.269 10.269 10.269 10.269 10.269 10.269 10.269 10.269 10.269 10.269 10.269 10.269 10.369 5.907167 6.237 6.237 6.237 6.237 6.237 6.237 6.237 6.237 6.237 6.237 6.237 6.237 6.237 6.237 6.237 6.237 6.237 6.237 6.237 6.237 6.237 6.237 6.237 6.237 6.237 6.237 6.237 6.237 6.237 6.237 6.237 6.237 6.237 6.237 6.237 6.237 6.237 6.237 6.237 6.237 6.237 6.237 6.237 6.237 6.237 6.237 6.237 6.237 6.237 6.237 6.237 6.237 6.237 6.237 6.237 6.237 6.237 6.237 6.237 6.237 6.237 11.237 11.2617 10.369 5.269 5.269 5.269 5.269 5.269 5.269 5.269 5.269 5.269 5.269 5.269 5.269 5.269 5.269 5.269 5.269 5.269 5.269 5.269 5.269 5.269 5.269 5.269 5.269 5.365603 5.199799 4.68923 4.635478 4.633639 4.636487 4.643564 4.737062 4.753912 4.73059 4.722 4.722 4.727493 4.617898 4.020094 3.081 3.081 3.081 3.081 3.081 3.081 3.081 3.194062 3.152746 4.067239 4.363116 4.646489 4.878186 4.88084 4.88 4.88 4.88 4.88 4.88 4.88 4.88 4.88 4.88 4.88 9.88 9.88 9.88 9.88 9.88 9.88 4.88 4.88 4.88 4.88 4.88 4.88 4.88 4.88 4.88 4.88 4.88 4.88 4.88 4.88 4.88 4.88 4.88 4.88 4.88 4.88 4.88 4.88 9.88 9.88 9.88 9.88 9.88 9.88 9.88 9.88 9.88 9.88 4.88 4.88 4.88 4.88 4.88 4.88 4.88 4.88 4.88 4.88 4.88 4.88 4.88 4.88 4.88 4.88 4.88 4.88 4.88 4.88 4.88 4.88 4.88 4.88 4.88 4.88 4.88 4.88 4.88 4.88 4.88 4.88 4.88 4.88 4.88 4.88 4.88 9.88 9.88 9.88 9.88 9.88 9.88 9.88 9.88 9.88 9.88 9.88 9.88 9.88 9.88 9.88 9.88 9.88 9.88 9.88 9.88 9.88 9.88 9.88 9.88 9.88 4.88 4.88 4.88 4.88 4.88 4.88 4.88 4.88 4.88 4.88 4.88 4.88 4.88 4.88 4.88 4.88 4.88 4.88 4.88 4.88 4.88 4.88 4.88 4.88 4.88 4.88 4.88 4.88 4.88 4.88 4.88 4.88 4.88 4.88 4.88 4.88 4.88 4.88 4.88 4.88 4.88 4.88 4.88 4.88 4.88 4.88 4.88 4.88 4.88 4.88 4.88 4.88 4.88 4.88 4.88 4.88 4.88 4.88 4.88 4.88 4.88 4.88 4.98 5.306559 5.653523 5.693894 5.767638 5.820185 5.820549 5.820977 5.823492 5.81113 5.794177 5.777374 5.758133 5.737856 5.978708 6.661706 6.815 6.815 6.797077 6.562866 5.533894 5.507799 5.480999 5.454069 5.427133 6.430243 6.803544 6.773716 5.74056 5.332 5.043632 4.88 4.88 4.88 4.88 4.88 4.88 4.88 4.88 4.88 4.88 4.88 4.88 4.88 4.88 4.88 4.88 4.88 4.88 4.88 4.88 4.88 4.88 4.88 4.88 4.88 4.88 4.88 4.88 4.88 4.88 4.88 4.88 4.88 4.88 4.88 4.88 4.88 9.88 9.88 4.88 4.88 4.88 4.88 4.88 4.88 4.88 4.88 4.88 4.88 4.88 4.88 4.88 4.88 4.88 4.88 4.88 4.871087 4.621768 4.33524 3.700367 3.546025 3.181 3.081 3.081 3.181 3.739411 3.870376 4.331296 -9999 -9999 -9999
-9999 -9999 -9999 -9999 -9999 -9999 -9999 -9999 -9999 -9999 -9999 -9999 -9999 -9999 -9999 -9999 -9999 -9999 -9999 -9999 -9999 -9999 -9999 -9999 -9999 -9999 -9999 -9999 -9999 -9999 -9999 -9999 -9999 -9999 -9999 -9999 -9999 -9999 -9999 -9999 -9999 -9999 -9999 4.767 4.767 4.767 4.767 4.767 4.676802 4.884618 5.269 5.269 5.269 5.269 5.269 5.269 5.269 5.269 5.269 5.269 5.269 5.269 5.269 5.269 5.269 10.269 10.269 10.269 10.269 10.269 10.269 10.269 10.269 10.269 10.269 10.269 10.269 10.269 10.269 10.269 10.269 10.269 10.269 10.269 10.369 5.907167 6.237 6.237 6.237 6.237 6.237 6.237 6.237 6.237 6.237 6.237 6.237 6.237 6.237 6.237 6.237 6.237 6.237 6.237 6.237 6.237 6.237 6.237 6.237 6.237 6.237 6.237 6.237 6.237 6.237 6.237 6.237 6.237 6.237 6.237 6.237 6.237 6.237 6.237 6.237 6.237 6.237 6.237 6.237 6.237 6.237 6.237 6.237 6.237 6.237 6.237 6.237 6.237 6.237 6.237 6.237 6.237 6.237 6.237 6.237 6.237 6.237 11.237 11.2617 10.369 5.269 5.269 5.269 5.269 5.269 5.269 5.269 5.269 5.269 5.269 5.269 5.269 5.269 5.269 5.269 5.269 5.269 5.269 5.269 5.269 5.269 5.269 5.269 5.269 5.365603 5.199799 4.68923 4.635478 4.633639 4.636487 4.643564 4.737062 4.753912 4.73059 4.722 4.722 4.727493 4.617898 4.020094 3.081 3.081 3.081 3.081 3.081 3.081 3.081 3.194062 3.152746 4.067239 4.363116 4.646489 4.878186 4.88084 4.88 4.88 4.88 4.88 4.88 4.88 4.88 4.88 4.88 4.88 9.88 9.88 9.88 9.88 9.88 9.88 4.88 4.88 4.88 4.88 4.88 4.88 4.88 4.88 4.88 4.88 4.88 4.88 4.88 4.88 4.88 4.88 4.88 4.88 4.88 4.88 4.88 4.88 9.88 9.88 9.88 9.88 9.88 9.88 9.88 9.88 9.88 9.88 4.88 4.88 4.88 4.88 4.88 4.88 4.88 4.88 4.88 4.88 4.88 4.88 4.88 4.88 4.88 4.88 4.88 4.88 4.88 4.88 4.88 4.88 4.88 4.88 4.88 4.88 4.88 4.88 4.88 4.88 4.88 4.88 4.88 4.88 4.88 4.88 4.88 9.88 9.88 9.88 9.88 9.88 9.88 9.88 9.88 9.88 9.88 9.88 9.88 9.88 9.88 9.88 9.88 9.88 9.88 9.88 9.88 9.88 9.88 9.88 9.88 9.88 4.88 4.88 4.88 4.88 4.88 4.88 4.88 4.88 4.88 4.88 4.88 4.88 4.88 4.88 4.88 4.88 4.88 4.88 4.88 4.88 4.88 4.88 4.88 4.88 4.88 4.88 4.88 4.88 4.88 4.88 4.88 4.88 4.88 4.88 4.88 4.88 4.88 4.88 4.88 4.88 4.88 4.88 4.88 4.88 4.88 4.88 4.88 4.88 4.88 4.88 4.88 4.88 4.88 4.88 4.88 4.88 4.88 4.88 4.88 4.88 4.88 4.88 4.98 5.306559 5.653523 5.693894 5.767638 5.820185 5.820549 5.820977 5.823492 5.81113 5.794177 5.777374 5.758133 5.737856 5.978708 6.661706 6.815 6.815 6.797077 6.562866 5.533894 5.507799 5.480999 5.454069 5.427133 6.430243 6.803544 6.773716 5.74056 5.332 5.043632 4.88 4.88 4.88 4.88 4.88 4.88 4.88 4.88 4.88 4.88 4.88 4.88 4.88 4.88 4.88 4.88 4.88 4.88 4.88 4.88 4.88 4.88 4.88 4.88 4.88 4.88 4.88 4.88 4.88 4.88 4.88 4.88 4.88 4.88 4.88 4.88 4.88 9.88 9.88 4.88 4.88 4.88 4.88 4.88 4.88 4.88 4.88 4.88 4.88 4.88 4.88 4.88 4.88 4.88 4.88 4.88 4.871087 4.621768 4.33524 3.700367 3.546025 3.181 3.081 3.081 3.181 3.739411 3.870376 4.331296 -9999 -9999 -9999
-9999 -9999 -9999 -9999 -9999 -9999 -9999 -9999 -9999 -9999 -9999 -9999 -9999 -9999 -9999 -9999 -9999 -9999 -9999 -9999 -9999 -9999 -9999 -9999 -9999 -9999 -9999 -9999 -9999 -9999 -9999 -9999 -9999 -9999 -9999 -9999 -9999 -9999 -9999 -9999 -9999 -9999 -9999 -9999 4.767 4.767 4.767 4.767 4.767 4.837193 5.269 5.269 5.269 5.269 5.269 5.269 5.269 5.269 5.269 5.269 5.269 5.269 5.269 5.269 5.269 10.269 10.269 10.269 10.269 10.269 10.269 10.269 10.269 10.269 10.269 10.269 10.269 10.269 10.269 10.269 10.269 10.269 10.269 10.269 10.369 10.90718 6.237 6.237 6.237 6.237 6.237 6.237 6.237 6.237 6.237 6.237 6.237 6.237 6.237 6.237 6.237 6.237 6.237 6.237 6.237 6.237 6.237 6.237 6.237 6.237 6.237 6.237 6.237 6.237 6.237 6.237 6.237 6.237 6.237 6.237 6.237 6.237 6.237 6.237 6.237 6.237 6.237 6.237 6.237 6.237 6.237 6.237 6.237 6.237 6.237 6.237 6.237 6.237 6.237 6.237 6.237 6.237 6.237 6.237 6.237 6.237 6.237 11.237 6.261675 5.369 5.269 5.269 5.269 5.269 5.269 5.269 5.269 5.269 5.269 5.269 5.269 5.269 5.269 5.269 5.269 5.269 5.269 5.269 5.269 5.269 5.269 5.269 5.369 5.305625 5.662683 5.484373 4.863033 4.656945 4.637 4.637 4.637 4.641063 4.699016 4.722 4.722 4.722 4.722 4.722198 4.384828 3.181 3.081 3.081 3.081 3.081 3.081 3.081 3.081 3.081392 3.184934 3.117293 4.172012 4.611201 4.826043 4.88 4.88 4.88 4.88 4.88 4.88 4.88 4.88 4.88 4.88 9.88 9.88 9.88 9.88 9.88 9.88 4.88 4.88 4.88 4.88 4.88 4.88 4.88 4.88 4.88 4.88 4.88 4.88 4.88 4.88 4.88 4.88 4.88 4.88 4.88 4.88 4.88 9.88 9.88 9.88 9.88 9.88 9.88 9.88 9.88 9.88 9.88 9.88 4.88 4.88 4.88 4.88 4.88 4.88 4.88 4.88 4.88 4.88 4.88 4.88 4.88 4.88 4.88 4.88 4.88 4.88 4.88 4.88 4.88 4.88 4.88 4.88 4.88 4.88 4.88 4.88 4.88 4.88 4.88 4.88 4.88 4.88 9.88 9.88 9.88 9.88 9.88 9.88 9.88 9.88 9.88 9.88 9.88 9.88 9.88 9.88 9.88 9.88 9.88 9.88 9.88 9.88 9.88 9.88 9.88 9.88 9.88 9.88 9.88 9.88 4.88 4.88 4.88 4.88 4.88 4.88 4.88 4.88 4.88 4.88 4.88 4.88 4.88 4.88 4.88 4.88 4.88 4.88 4.88 4.88 4.88 4.88 4.88 4.88 4.88 4.88 4.88 4.88 4.88 4.88 4.88 4.88 4.88 4.88 4.88 4.88 4.88 4.88 4.88 4.88 4.88 4.88 4.88 4.88 4.88 4.88 4.88 4.88 4.88 4.88 4.88 4.88 4.88 4.88 4.88 4.88 4.88 4.88 4.88 4.88 4.88 4.88 4.88 4.986027 5.345882 5.551763 5.630307 5.732798 5.75268 5.769135 5.783181 5.781779 5.764833 5.747653 5.734227 5.999098 6.646842 6.812804 6.815 6.815 6.801545 6.607379 5.522666 5.495745 5.468809 5.441873 6.307496 6.750235 6.814858 6.814663 6.460632 5.597061 5.043594 4.88 4.88 4.88 4.88 4.88 4.88 4.88 4.88 4.88 4.88 4.88 4.88 4.88 4.88 4.88 4.88 4.88 4.88 4.88 4.88 4.88 4.88 4.88 4.88 4.88 4.88 4.88 4.88 4.88 4.88 4.88 4.88 4.88 4.88 4.88 4.88 4.88 4.88 4.88 4.88 4.88 4.88 4.88 4.88 4.88 4.88 4.88 4.88 4.88 4.88 4.88 4.88 4.88 4.88 4.88 4.88 4.862257 4.651792 4.148766 3.644992 3.439834 3.328042 3.081 3.081 3.081 3.193442 3.822348 4.41545 -9999 -9999 -9999
-9999 -9999 -9999 -9999 -9999 -9999 -9999 -9999 -9999 -9999 -9999 -9999 -9999 -9999 -9999 -9999 -9999 -9999 -9999 -9999 -9999 -9999 -9999 -9999 -9999 -9999 -9999 -9999 -9999 -9999 -9999 -9999 -9999 -9999 -9999 -9999 -9999 -9999 -9999 -9999 -9999 -9999 -9999 -9999 4.767 4.767 4.767 4.767 4.767 4.767 4.818972 5.276633 5.269 5.269 5.269 5.269 5.269 5.269 5.269 5.269 5.269 5.269 5.269 5.269 5.269 5.269 10.269 10.269 10.269 10.269 10.269 10.269 10.269 10.269 10.269 10.269 10.269 10.269 10.269 10.269 10.269 10.269 10.269 10.269 10.369 10.93901 6.297839 6.237 6.237 6.237 6.237 6.237 6.237 6.237 6.237 6.237 6.237 6.237 6.237 6.237 6.237 6.237 6.237 6.237 6.237 6.237 6.237 6.237 6.237 6.237 6.237 6.237 6.237 6.237 6.237 6.237 6.237 6.237 6.237 6.237 6.237 6.237 6.237 6.237 6.237 6.237 6.237 6.237 6.237 6.237 6.237 6.237 6.237 6.237 6.237 6.237 6.237 6.237 6.237 6.237 6.237 6.237 6.237 6.237 6.237 6.237 6.237 6.237 6.161645 5.369 5.269 5.269 5.269 5.269 5.269 5.269 5.269 5.269 5.269 5.269 5.269 5.269 5.269 5.269 5.269 5.269 5.269 5.269 5.269 5.269 5.381271 5.398937 5.762349 5.954089 5.947895 5.733634 5.162001 4.856526 4.67616 4.640136 4.641047 4.646537 4.710815 4.726672 4.722 4.722 4.722 4.722 4.697993 3.680487 3.139605 3.081 3.081 3.081 3.081 3.081 3.081 3.081 3.081 3.081 3.181 3.181 4.362331 4.859375 4.870162 4.877661 4.88 4.88 4.88 4.88 4.88 4.88 4.88 4.88 9.88 9.88 9.88 9.88 9.88 9.88 4.88 4.88 4.88 4.88 4.88 4.88 4.88 4.88 4.88 4.88 4.88 4.88 4.88 4.88 4.88 4.88 4.88 4.88 9.88 9.88 9.88 9.88 9.88 9.88 9.88 9.88 9.88 9.88 9.88 9.88 9.88 9.88 4.88 4.88 4.88 4.88 4.88 4.88 4.88 4.88 4.88 4.88 4.88 4.88 4.88 4.88 4.88 4.88 4.88 4.88 4.88 4.88 4.88 4.88 4.88 4.88 4.88 4.88 4.88 4.88 4.88 4.88 4.88 9.88 9.88 9.88 9.88 9.88 9.88 9.88 9.88 9.88 9.88 9.88 9.88 9.88 9.88 9.88 9.88 9.88 9.88 9.88 9.88 9.88 9.88 9.88 9.88 9.88 9.88 9.88 9.88 9.88 9.88 4.88 4.88 4.88 4.88 4.88 4.88 4.88 4.88 4.88 4.88 4.88 4.88 4.88 4.88 4.88 4.88 4.88 4.88 4.88 4.88 4.88 4.88 4.88 4.88 4.88 4.88 4.88 4.88 4.88 4.88 4.88 4.88 4.88 4.88 4.88 4.88 4.88 4.88 4.88 4.88 4.88 4.88 4.88 4.88 4.88 4.88 4.88 4.88 4.88 4.88 4.88 4.88 4.88 4.88 4.88 4.88 4.88 4.88 4.88 4.88 4.88 4.88 4.88 4.88 5.374774 5.582588 5.559721 5.682406 5.697357 5.717685 5.736417 5.743618 6.055249 6.525199 6.690335 6.815 6.815 6.815 6.815 6.815 6.809877 6.742654 6.52606 5.602365 5.456699 5.430589 6.365132 6.751584 6.701378 6.772409 6.498504 5.575553 5.332 5.060715 4.88 4.88 4.88 4.88 4.88 4.88 4.88 4.88 4.88 4.88 4.88 4.88 4.88 4.88 4.88 4.88 4.88 4.88 4.88 4.88 4.88 4.88 4.88 4.88 4.88 4.88 4.88 4.88 4.88 4.88 4.88 4.88 4.88 4.88 4.88 4.88 4.88 4.88 4.88 4.88 4.88 4.88 4.88 4.88 4.88 4.88 4.88 4.88 4.88 4.88 4.88 4.88 4.88 4.88 4.88 4.826508 4.643399 3.999786 3.622331 3.424718 3.311739 3.081 3.081 3.081 3.181 3.816642 4.280157 -9999 -9999 -9999
-9999 -9999 -9999 -9999 -9999 -9999 -9999 -9999 -9999 -9999 -9999 -9999 -9999 -9999 -9999 -9999 -9999 -9999 -9999 -9999 -9999 -9999 -9999 -9999 -9999 -9999 -9999 -9999 -9999 -9999 -9999 -9999 -9999 -9999 -9999 -9999 -9999 -9999 -9999 -9999 -9999 -9999 -9999 -9999 -9999 4.767 4.767 4.767 4.767 4.767 4.813177 5.223349 5.269 5.269 5.269 5.269 5.269 5.269 5.269 5.269 5.269 5.269 5.269 5.269 5.269 5.269 10.269 10.269 10.269 10.269 10.269 10.269 10.269 10.269 10.269 10.269 10.269 10.269 10.269 10.269 10.269 10.269 10.269 10.269 10.269 10.269 5.970469 6.237 6.237 6.237 6.237 6.237 6.237 6.237 6.237 6.237 6.237 6.237 6.237 6.237 6.237 6.237 6.237 6.237 6.237 6.237 6.237 6.237 6.237 6.237 6.237 6.237 6.237 6.237 6.237 6.237 6.237 6.237 6.237 6.237 6.237 6.237 6.237 6.237 6.237 6.237 6.237 6.237 6.237 6.237 6.237 6.237 6.237 6.237 6.237 6.237 6.237 6.237 6.237 6.237 6.237 6.237 6.237 6.237 6.237 6.237 6.237 6.237 5.970577 5.369 5.269 5.269 5.269 5.269 5.269 5.269 5.269 5.269 5.269 5.257005 5.284482 5.283919 5.269 5.269 5.269 5.269 5.269 5.269 5.369 5.212817 5.635607 5.970014 5.985563 5.990741 5.98902 5.955321 5.592563 5.189455 4.87691 4.681784 4.649882 4.68743 4.792184 4.776802 4.732637 4.722 4.722 4.722 4.815791 4.35822 3.698272 3.181 3.081 3.081 3.081 3.081 3.081 3.081 3.081 3.081 3.081 3.081 3.181 4.646459 4.673892 4.842049 4.874444 4.88 4.88 4.88 4.88 4.88 4.88 4.88 4.88 9.88 9.88 9.88 9.88 9.88 4.88 4.88 4.88 4.88 4.88 4.88 4.88 4.88 4.88 4.88 4.88 4.88 4.88 4.88 4.88 4.88 9.88 9.88 9.88 9.88 9.88 9.88 9.88 9.88 9.88 9.88 9.88 9.88 9.88 9.88 9.88 9.88 9.88 4.88 4.88 4.88 4.88 4.88 4.88 4.88 4.88 4.88 4.88 4.88 4.88 4.88 4.88 4.88 4.88 4.88 4.88 4.88 4.88 4.88 4.88 4.88 4.88 4.88 4.88 4.88 4.88 9.88 9.88 9.88 9.88 9.88 9.88 9.88 9.88 9.88 9.88 9.88 9.88 9.88 9.88 9.88 9.88 9.88 9.88 9.88 9.88 9.88 9.88 9.88 9.88 9.88 9.88 9.88 9.88 9.88 9.88 9.88 9.88 9.88 4.88 4.88 4.88 4.88 4.88 4.88 4.88 4.88 4.88 4.88 4.88 4.88 4.88 4.88 4.88 4.88 4.88 4.88 4.88 4.88 4.88 4.88 4.88 4.88 4.88 4.88 4.88 4.88 4.88 4.88 4.88 4.88 4.88 4.88 4.88 4.88 4.88 4.88 4.88 4.88 4.88 4.88 4.88 4.88 4.88 4.88 4.88 4.88 4.88 4.88 4.88 4.88 4.88 4.88 4.88 4.88 4.88 4.88 4.88 4.88 4.88 4.88 4.88 5.171291 5.393582 5.516161 5.625524 5.647861 5.666692 5.685424 5.700779 5.974878 6.557293 6.708845 6.898311 6.815 6.81401 6.806663 6.886611 6.721544 6.547637 6.253918 5.487018 5.445369 5.418479 6.148035 6.481349 6.400024 6.407649 5.502352 5.332 5.332 5.060677 4.88 4.88 4.88 4.88 4.88 4.88 4.88 4.88 4.88 4.88 4.88 4.88 4.88 4.88 4.88 4.88 4.88 4.88 4.88 4.88 4.88 4.88 4.88 4.88 4.88 4.88 4.88 4.88 4.88 4.88 4.88 4.88 4.88 4.88 4.88 4.88 4.88 4.88 4.88 4.88 4.88 4.88 4.88 4.88 4.88 4.88 4.88 4.88 4.88 4.88 4.88 4.88 4.88 4.88 4.88 4.679837 4.30034 3.931127 3.596132 3.380655 3.181 3.081 3.081 3.081 3.181 3.716722 4.262563 -9999 -9999 -9999
-9999 -9999 -9999 -9999 -9999 -9999 -9999 -9999 -9999 -9999 -9999 -9999 -9999 -9999 -9999 -9999 -9999 -9999 -9999 -9999 -9999 -9999 -9999 -9999 -9999 -9999 -9999 -9999 -9999 -9999 -9999 -9999 -9999 -9999 -9999 -9999 -9999 -9999 -9999 -9999 -9999 -9999 -9999 -9999 -9999 -9999 4.767 4.767 4.767 4.767 4.767 4.698969 5.267104 5.269 5.269 5.269 5.269 5.269 5.269 5.269 5.269 5.269 5.269 5.269 5.269 5.269 5.269 10.269 10.269 10.269 10.269 10.269 10.269 10.269 10.269 10.269 10.269 10.269 10.269 10.269 10.269 10.269 10.269 10.269 10.269 10.369 10.97049 6.237 6.237 6.237 6.237 6.237 6.237 6.237 6.237 6.237 6.237 6.237 6.237 6.237 6.237 6.237 6.237 6.237 6.237 6.237 6.237 6.237 6.237 6.237 6.237 6.237 6.237 6.237 6.237 6.237 6.237 6.237 6.237 6.237 6.237 6.237 6.237 6.237 6.237 6.237 6.237 6.237 6.237 6.237 6.237 6.237 6.237 6.237 6.237 6.237 6.237 6.237 6.237 6.237 6.237 6.237 6.237 6.237 6.237 6.237 6.237 6.288955 5.369 5.269 5.269 5.269 5.269 5.269 5.269 5.269 5.269 5.269 5.269 5.261183 5.517621 5.506441 5.269 5.269 5.269 5.269 5.269 5.420262 5.702325 5.728182 6.21504 6.021424 6.033705 6.11676 6.116397 6.108044 5.788383 5.512549 5.151924 4.810875 4.694057 4.689674 4.708184 4.781838 4.759866 4.724588 4.722 4.722 4.801971 4.667977 4.160248 3.306196 3.181 3.081 3.081 3.081 3.081 3.081 3.081 3.081 3.081 3.081 3.081 4.320509 4.654844 4.642823 4.84514 4.88 4.88 4.88 4.88 4.88 4.88 4.88 4.88 9.88 9.88 9.88 9.88 9.88 9.88 4.88 4.88 4.88 4.88 4.88 4.88 4.88 4.88 4.88 4.88 4.88 4.88 4.88 4.88 9.88 9.88 9.88 9.88 9.88 9.88 9.88 9.88 9.88 9.88 9.88 9.88 9.88 9.88 9.88 9.88 9.88 9.88 4.88 4.88 4.88 4.88 4.88 4.88 4.88 4.88 4.88 4.88 4.88 4.88 4.88 4.88 4.88 4.88 4.88 4.88 4.88 4.88 4.88 4.88 4.88 4.88 4.88 4.88 4.88 4.88 9.88 9.88 9.88 9.88 9.88 9.88 9.88 9.88 9.88 9.88 9.88 9.88 9.88 9.88 9.88 9.88 9.88 9.88 9.88 9.88 9.88 9.88 9.88 9.88 9.88 9.88 9.88 9.88 9.88 9.88 9.88 9.88 9.88 4.88 4.88 4.88 4.88 4.88 4.88 4.88 4.88 4.88 4.88 4.88 4.88 4.88 4.88 4.88 4.88 4.88 4.88 4.88 4.88 4.88 4.88 4.88 4.88 4.88 4.88 4.88 4.88 4.88 4.88 4.88 4.88 4.88 4.88 4.88 4.88 4.88 4.88 4.88 4.88 4.88 4.88 4.88 4.88 4.88 4.88 4.88 4.88 4.88 4.88 4.88 4.88 4.88 4.88 4.88 4.88 4.88 4.88 4.88 4.88 4.88 4.88 4.88 4.88 5.373482 5.484619 5.573938 5.596868 5.615699 5.634432 5.653187 5.662971 5.990157 6.279693 6.574827 6.82275 6.813532 6.608523 6.326664 6.227583 5.613045 5.486413 5.460141 5.433219 5.406283 5.379614 5.353292 5.335483 5.332 5.332 5.332 5.332 5.060639 4.88 4.88 4.88 4.88 4.88 4.88 4.88 4.88 4.88 4.88 4.88 4.88 4.88 4.88 4.88 4.88 4.88 4.88 4.88 4.88 4.88 4.88 4.88 4.88 4.88 4.88 4.88 4.88 4.88 4.88 4.88 4.88 4.88 4.88 4.88 4.88 4.88 4.88 4.88 4.88 4.88 4.88 4.88 4.88 4.88 4.88 4.88 4.88 4.88 4.88 4.88 4.88 4.88 4.88 4.870677 4.616629 4.362667 3.839132 3.54638 3.357193 3.081 3.081 3.081 3.081 3.119437 3.734854 4.248453 -9999 -9999 -9999
-9999 -9999 -9999 -9999 -9999 -9999 -9999 -9999 -9999 -9999 -9999 -9999 -9999 -9999 -9999 -9999 -9999 -9999 -9999 -9999 -9999 -9999 -9999 -9999 -9999 -9999 -9999 -9999 -9999 -9999 -9999 -9999 -9999 -9999 -9999 -9999 -9999 -9999 -9999 -9999 -9999 -9999 -9999 -9999 -9999 -9999 4.767 4.767 4.767 4.767 4.767 4.684982 5.053967 5.269 5.269 5.269 5.269 5.269 5.269 5.269 5.269 5.269 5.269 5.269 5.269 5.269 5.269 10.269 10.269 10.269 10.269 10.269 10.269 10.269 10.269 10.269 10.269 10.269 10.269 10.269 10.269 10.269 10.269 10.269 10.269 10.369 10.9705 6.237 6.237 6.237 6.237 6.237 6.237 6.237 6.237 6.237 6.237 6.237 6.237 6.237 6.237 6.237 6.237 6.237 6.237 6.237 6.237 6.237 6.237 6.237 6.237 6.237 6.237 6.237 6.237 6.237 6.237 6.237 6.237 6.237 6.237 6.237 6.237 6.237 6.237 6.237 6.237 6.237 6.237 6.237 6.237 6.237 6.237 6.237 6.237 6.237 6.237 6.237 6.237 6.237 6.237 6.237 6.237 6.237 6.237 6.237 6.256924 5.734865 5.269 5.269 5.269 5.269 5.269 5.269 5.269 5.269 5.269 5.269 5.289762 5.530627 5.550514 5.957302 5.521009 5.269 5.269 5.269 5.495392 6.219043 6.506326 6.297832 6.222582 6.189332 6.298418 6.235352 6.230851 6.198596 6.051784 5.917231 5.575806 5.089042 4.807286 4.696903 4.687512 4.691498 4.699362 4.719782 4.748641 4.765087 4.796085 4.631333 4.355057 4.050383 3.325027 3.181 3.081 3.081 3.081 3.081 3.081 3.081 3.081 3.081 3.081 3.747828 4.321447 4.693988 4.614856 4.83773 4.88 4.88 4.88 4.88 4.88 4.88 4.88 4.88 9.88 9.88 9.88 9.88 9.88 4.88 4.88 4.88 4.88 4.88 4.88 4.88 4.88 4.88 4.88 4.88 4.88 9.88 9.88 9.88 9.88 9.88 9.88 9.88 9.88 9.88 9.88 9.88 9.88 9.88 9.88 9.88 9.88 9.88 9.88 9.88 9.88 9.88 4.88 4.88 4.88 4.88 4.88 4.88 4.88 4.88 4.88 4.88 4.88 4.88 4.88 4.88 4.88 4.88 4.88 4.88 4.88 4.88 4.88 4.88 4.88 4.88 4.88 4.88 4.88 4.88 9.88 9.88 9.88 9.88 9.88 9.88 9.88 9.88 9.88 9.88 9.88 9.88 9.88 9.88 9.88 9.88 9.88 9.88 9.88 9.88 9.88 9.88 9.88 9.88 9.88 9.88 9.88 9.88 9.88 9.88 9.88 9.88 4.88 4.88 4.88 4.88 4.88 4.88 4.88 4.88 4.88 4.88 4.88 4.88 4.88 4.88 4.88 4.88 4.88 4.88 4.88 4.88 4.88 4.88 4.88 4.88 4.88 4.88 4.88 4.88 4.88 4.88 4.88 4.88 4.88 4.88 4.88 4.88 4.88 4.88 4.88 4.88 4.88 4.88 4.88 4.88 4.88 4.88 4.88 4.88 4.88 4.88 4.88 4.88 4.88 4.88 4.88 4.88 4.88 4.88 4.88 4.88 4.88 4.88 4.88 4.88 5.350886 5.443458 5.527436 5.545875 5.564706 5.583439 5.602194 5.618725 5.622497 5.611073 5.767955 6.219074 6.203741 5.949476 5.644291 5.620378 5.500492 5.474895 5.447959 5.421022 5.394464 5.368072 5.341906 5.333099 5.332 5.332 5.332 5.311528 5.085214 4.88 4.88 4.88 4.88 4.88 4.88 4.88 4.88 4.88 4.88 4.88 4.88 4.88 4.88 4.88 4.88 4.88 4.88 4.88 4.88 4.88 4.88 4.88 4.88 4.88 4.88 4.88 4.88 4.88 4.88 4.88 4.88 4.88 4.88 4.88 4.88 4.88 4.88 4.88 4.88 4.88 4.88 4.88 4.88 4.88 4.88 4.88 4.88 4.88 4.88 4.88 4.88 4.88 4.88 4.825898 4.674638 4.124125 3.845379 3.595751 3.340258 3.081 3.081 3.081 3.181 3.462713 3.795682 4.250529 -9999 -9999 -9999
-9999 -9999 -9999 -9999 -9999 -9999 -9999 -9999 -9999 -9999 -9999 -9999 -9999 -9999 -9999 -9999 -9999 -9999 -9999 -9999 -9999 -9999 -9999 -9999 -9999 -9999 -9999 -9999 -9999 -9999 -9999 -9999 -9999 -9999 -9999 -9999 -9999 -9999 -9999 -9999 -9999 -9999 -9999 -9999 -9999 -9999 -9999 4.767 4.767 4.767 4.767 4.767 4.672981 5.255425 5.269 5.269 5.269 5.269 5.269 5.269 5.269 5.269 5.269 5.269 5.269 5.269 5.269 5.269 10.269 10.269 10.269 10.269 10.269 10.269 10.269 10.269 10.269 10.269 10.269 10.269 10.269 10.269 10.269 10.269 10.269 10.369 10.64502 6.018807 6.237 6.237 6.237 6.237 6.237 6.237 6.237 6.237 6.237 6.237 6.237 6.237 6.237 6.237 6.237 6.237 6.237 6.237 6.237 6.237 6.237 6.237 6.237 6.237 6.237 6.237 6.237 6.237 6.237 6.237 6.237 6.237 6.237 6.237 6.237 6.237 6.237 6.237 6.237 6.237 6.237 6.237 6.237 6.237 6.237 6.237 6.237 6.237 6.237 6.237 6.237 6.237 6.237 6.237 6.237 6.237 6.097061 5.714427 5.528991 5.369 5.269 5.269 5.269 5.269 5.269 5.269 5.269 5.269 5.269 5.269 5.291191 5.507626 5.746577 5.855054 5.906128 5.483993 5.624227 5.958927 6.201163 6.582298 6.363 6.354383 6.332369 6.358653 6.395721 6.393559 6.36896 6.314421 6.210501 6.084978 5.766875 5.373589 5.01825 4.644925 4.669037 4.656918 4.653 4.677535 4.744468 4.803689 4.821615 4.737996 4.667348 4.361556 3.832772 3.338978 3.081 3.081 3.081 3.081 3.081 3.081 3.081 3.081 3.081 3.181 3.450693 4.364392 4.634127 4.665627 4.820639 4.88 4.88 4.88 4.88 4.88 4.88 4.88 9.88 9.88 9.88 9.88 9.88 9.88 9.88 4.88 4.88 4.88 4.88 4.88 4.88 4.88 4.88 9.88 9.88 9.88 9.88 9.88 9.88 9.88 9.88 9.88 9.88 9.88 9.88 9.88 9.88 9.88 9.88 9.88 9.88 9.88 9.88 9.88 9.88 9.88 9.88 4.88 4.88 4.88 4.88 4.88 4.88 4.88 4.88 4.88 4.88 4.88 4.88 4.88 4.88 4.88 4.88 4.88 4.88 4.88 4.88 4.88 4.88 4.88 4.88 4.88 4.88 4.88 9.88 9.88 9.88 9.88 9.88 9.88 9.88 9.88 9.88 9.88 9.88 9.88 9.88 9.88 9.88 9.88 9.88 9.88 9.88 9.88 9.88 9.88 9.88 9.88 9.88 9.88 9.88 9.88 9.88 9.88 9.88 9.88 4.88 4.88 4.88 4.88 4.88 4.88 4.88 4.88 4.88 4.88 4.88 4.88 4.88 4.88 4.88 4.88 4.88 4.88 4.88 4.88 4.88 4.88 4.88 4.88 4.88 4.88 4.88 4.88 4.88 4.88 4.88 4.88 4.88 4.88 4.88 4.88 4.88 4.88 4.88 4.88 4.88 4.88 4.88 4.88 4.88 4.88 4.88 4.88 4.88 4.88 4.88 4.88 4.88 4.88 4.88 4.88 4.88 4.88 4.88 4.88 4.88 4.88 4.88 4.88 5.328404 5.403529 5.476226 5.494882 5.513713 5.532446 5.551201 5.57001 5.581706 5.57886 5.565896 5.651192 5.639479 5.6288 5.517023 5.489734 5.479233 5.461664 5.435741 5.409322 5.382844 5.355953 5.33547 5.332 5.332 5.332 5.332 5.043404 4.88 4.88 4.88 4.88 4.88 4.88 4.88 4.88 4.88 4.88 4.88 4.88 4.88 4.88 4.88 4.88 4.88 4.88 4.88 4.88 4.88 4.88 4.88 4.88 4.88 4.88 4.88 4.88 4.88 4.88 4.88 4.88 4.88 4.88 4.88 4.88 4.88 4.98 4.88 4.88 4.88 4.88 4.88 4.88 4.88 4.88 4.88 4.88 4.88 4.88 4.88 4.88 4.88 4.88 4.88 4.647246 4.34707 4.05306 3.641233 3.537928 3.105201 3.081 3.081 3.081 3.181 3.736127 4.053426 4.268324 -9999 -9999 -9999
